ply
format ascii 1.0
element vertex 74
property float x
property float y
property float z
end_header
-0.327032 -0.310162 -1.06203
-0.357621 -0.302877 -1.0705
-0.391481 -0.227307 -1.08371
-0.414993 -0.17038 -1.11112
-0.453721 -0.128564 -1.14714
-0.492648 -0.0807454 -1.13791
-0.540169 -0.0103641 -1.10287
-0.585102 -0.060834 -1.07301
-0.6837 -0.248875 -1.02125
-0.705339 -0.239694 -0.974125
-0.848306 -0.284919 -1.11455
-0.914817 -0.31872 -1.12533
-0.968004 -0.320713 -1.14604
-0.970893 -0.317697 -1.18686
-1.10991 -0.297802 -1.21769
-1.21422 -0.246741 -1.36698
-1.26603 -0.219235 -1.41253
-1.33027 -0.200252 -1.46466
-1.39832 -0.176161 -1.52918
-1.45964 -0.16253 -1.59963
-1.51991 -0.156519 -1.65149
-1.55484 -0.131581 -1.68668
-1.58328 -0.114495 -1.69872
-1.63926 0.152115 -1.8631
-1.6561 0.273149 -1.8931
-1.88005 -0.42831 -1.56582
-1.87634 -0.428224 -1.5646
-1.87507 -0.427897 -1.56242
-1.87366 -0.428542 -1.56161
-1.87163 -0.429605 -1.5609
-1.63006 0.00857211 -1.82065
-1.57464 0.0533128 -1.84049
-1.51258 0.112253 -1.90761
-1.55693 0.136958 -1.93393
-1.58381 0.244104 -2.02545
-1.50276 0.276411 -2.03349
-1.31265 0.352757 -1.96698
-1.29871 0.445279 -1.95288
-1.28862 0.480858 -1.97756
-1.25632 0.579855 -2.01175
-1.23596 0.668627 -2.00392
-1.25639 0.692749 -1.98603
-1.18981 0.777928 -2.0847
-1.14323 0.820631 -2.09476
-1.05762 0.982891 -1.98905
-1.05764 0.982926 -1.98905
-1.05215 1.02712 -1.95449
-1.01817 0.923137 -2.14589
-1.03124 0.939966 -2.15702
-1.01683 0.982397 -2.15118
-0.978282 1.03359 -2.14095
-0.907815 1.13156 -2.06413
-0.857531 1.22014 -1.96529
-0.80943 1.31848 -1.83144
-0.787994 1.2993 -1.84638
-0.770996 1.23054 -1.91267
-0.739978 1.21925 -1.92116
-0.80654 1.11737 -1.97351
-0.834198 1.11633 -1.94777
-0.837442 1.11548 -1.89707
-0.776951 1.14941 -1.88636
-0.734118 1.18508 -1.89883
-0.742856 1.19449 -1.90555
-0.767272 1.22502 -1.91638
-0.833215 1.23656 -1.91213
-0.834099 1.27481 -1.90363
-0.814638 1.31222 -1.93408
-0.753515 1.45006 -1.88299
-0.674829 1.47027 -1.8658
-0.525123 1.56624 -1.75557
-0.458022 1.50625 -1.73275
-0.859155 0.0211854 -1.84465
-0.822674 -0.0804385 -1.77444
-0.778242 -0.12857 -1.71673
