ply
format ascii 1.0
element vertex 699
property float x
property float y
property float z
property float nx
property float ny
property float nz
property uchar diffuse_red
property uchar diffuse_green
property uchar diffuse_blue
end_header
-1.17524 0.753283 -2.26234 0.496631 -0.642303 0.583785 173 146 118
-1.12088 0.662297 -2.16835 0.329005 -0.660136 0.67526 164 150 120
-0.708507 0.785884 -2.16427 -0.873682 -0.446251 0.193752 132 121 97
-0.707961 0.787641 -2.16273 -0.868266 -0.346493 0.355045 132 121 97
-0.705721 0.785903 -2.16408 -0.887935 0.0812009 0.452745 157 144 116
-0.694849 0.769868 -2.14819 -0.738297 -0.0165591 0.674273 101 91 72
-1.14281 0.584929 -2.11602 0.331409 -0.576472 0.746892 157 144 117
-0.746373 0.739595 -2.14398 -0.68241 -0.136559 0.7181 109 97 75
-0.741054 0.738516 -2.14148 -0.527074 0.0082489 0.84978 127 113 89
-0.706396 0.787906 -2.17219 -0.91735 0.190342 0.349628 134 121 99
-0.696283 0.771524 -2.15194 -0.844667 0.0950818 0.526781 102 92 72
-0.747053 0.739089 -2.14498 -0.517396 -0.121996 0.847005 110 98 75
-0.741662 0.737698 -2.14138 -0.562706 -0.0769625 0.823067 127 113 88
-0.748583 0.733714 -2.15074 -0.351645 -0.124328 0.927841 138 123 95
-1.21509 0.722584 -2.26414 0.496598 -0.708668 0.501178 153 122 102
-0.884632 0.631456 -2.11575 -0.403314 -0.914846 -0.0198516 159 147 118
-0.663618 0.761649 -2.18279 -0.850214 -0.403133 0.338556 143 129 104
-0.878972 0.640262 -2.13744 -0.574368 -0.639707 0.510762 185 171 139
-0.877645 0.63786 -2.13395 -0.568037 -0.603188 0.55991 157 145 117
-0.876615 0.636212 -2.13026 -0.592729 -0.588071 0.550314 155 144 117
-0.87283 0.631727 -2.12608 -0.51642 -0.761566 0.391571 132 123 105
-1.00318 0.64762 -2.17928 0.0874944 -0.220529 0.971448 196 180 146
-1.00097 0.647266 -2.17802 0.0744106 -0.209438 0.974987 196 180 146
-0.873909 0.639192 -2.13891 -0.628591 -0.591992 0.504399 187 174 144
-0.87029 0.637429 -2.13947 -0.57403 -0.582572 0.575413 196 182 147
-0.659979 0.774809 -2.21523 -0.931753 -0.281085 0.229843 147 134 105
-0.660077 0.774795 -2.21512 -0.932764 -0.277875 0.229647 147 134 105
-0.664591 0.776489 -2.21346 -0.887479 -0.36765 0.277875 160 146 120
-0.664399 0.776609 -2.21363 -0.889619 -0.372517 0.264213 160 146 120
-0.6581 0.772335 -2.2106 -0.754445 -0.403008 0.518071 130 118 94
-0.658031 0.772321 -2.2107 -0.757175 -0.400641 0.515919 131 118 94
-0.658773 0.767527 -2.205 -0.823813 -0.300493 0.480662 160 148 124
-0.658948 0.767454 -2.20485 -0.822062 -0.304157 0.481355 160 148 124
-0.644315 0.736064 -2.17708 -0.841131 -0.342963 0.418182 89 82 67
-0.644016 0.732092 -2.17308 -0.848609 -0.222614 0.479902 87 80 65
-1.0011 0.642092 -2.1801 0.0790484 -0.212349 0.973991 162 150 121
-0.997291 0.647659 -2.18024 0.0781457 -0.21277 0.973972 196 181 146
-0.855275 0.674517 -2.17248 -0.932889 -0.12357 0.338302 160 148 120
-0.643199 0.734711 -2.17928 -0.813242 -0.492831 0.309445 71 64 53
-0.642224 0.728803 -2.17893 -0.790367 -0.512194 0.336122 111 99 82
-0.641151 0.725769 -2.17415 -0.794604 -0.508299 0.332018 125 113 95
-0.642514 0.724664 -2.17337 -0.809729 -0.504069 0.300421 126 115 96
-0.648339 0.761028 -2.2122 -0.906857 -0.413011 -0.083855 192 176 143
-0.648557 0.76076 -2.2122 -0.910222 -0.408434 -0.0683993 192 176 143
-0.648178 0.761104 -2.21221 -0.895444 -0.442817 -0.0457497 192 176 143
-0.643663 0.754373 -2.21032 -0.862646 -0.499188 0.0815624 185 170 140
-0.648061 0.757566 -2.20705 -0.886565 -0.438535 0.147275 174 160 133
-0.648398 0.757576 -2.20705 -0.887068 -0.430451 0.166801 174 160 133
-0.992969 0.639158 -2.18424 0.0384621 -0.171469 0.984439 158 145 115
-0.993451 0.632302 -2.17859 0.173994 -0.317391 0.932196 159 146 116
-0.650664 0.769334 -2.22681 -0.908681 -0.414981 0.0457104 213 199 170
-0.642234 0.754419 -2.21067 -0.862844 -0.498637 0.0828272 185 171 140
-0.640372 0.750528 -2.20828 -0.846543 -0.515176 0.13401 186 172 141
-0.639079 0.750361 -2.2109 -0.889711 -0.456401 -0.0106327 188 174 142
-0.690214 0.661697 -2.1433 -0.255207 -0.573157 0.778691 169 157 128
-0.628508 0.717564 -2.17721 -0.858469 -0.387056 0.33648 183 167 137
-1.00663 0.625325 -2.18142 0.0936182 -0.220215 0.970949 152 139 111
-0.988442 0.633276 -2.18137 0.0416605 -0.177184 0.983296 172 158 127
-0.987905 0.634129 -2.18215 0.0407818 -0.176322 0.983487 172 158 127
-0.995086 0.620047 -2.17089 0.0357096 -0.17563 0.983808 164 150 119
-0.984188 0.642347 -2.18841 0.197619 -0.344805 0.917636 134 123 96
-0.995026 0.613785 -2.1673 0.00632885 -0.149366 0.988762 164 150 120
-0.647568 0.768618 -2.23301 -0.764538 -0.513352 0.389809 170 158 129
-0.648088 0.767923 -2.23235 -0.874459 -0.465868 0.135237 170 158 130
-0.627524 0.715805 -2.18202 -0.856551 -0.403941 0.321172 194 180 146
-0.702769 0.661367 -2.15674 -0.568533 -0.167521 0.805423 183 162 127
-0.685257 0.657279 -2.15323 -0.401264 -0.915962 -0.00108573 185 169 137
-0.789398 0.512349 -2.03866 -0.422461 0.0449176 0.905267 100 91 72
-0.828271 0.487489 -2.02919 -0.431961 0.0869919 0.897687 116 105 93
-0.797203 0.494939 -2.03069 -0.421059 0.0387721 0.906204 135 123 102
-0.782741 0.508016 -2.03825 -0.395254 0.00187121 0.91857 129 116 94
-0.785254 0.499049 -2.02965 -0.404237 0.0945488 0.909754 142 129 105
-0.803063 0.481698 -2.02398 -0.400923 0.165023 0.901126 111 101 84
-0.892004 0.449087 -2.02406 -0.872447 -0.460678 -0.16313 119 109 90
-0.848746 0.44775 -2.02328 -0.976994 -0.170427 -0.12821 173 159 134
-0.912439 0.492724 -2.08243 -0.456782 0.162414 0.874627 159 145 121
-0.908472 0.491212 -2.08212 -0.387244 0.141104 0.911116 166 152 125
-0.905864 0.493092 -2.08406 -0.680173 0.305891 0.66618 149 138 116
-0.909119 0.491851 -2.0831 -0.555716 -0.0648864 0.828836 133 122 101
-0.901511 0.491697 -2.08325 -0.634251 0.293981 0.715053 164 152 129
-0.929473 0.480935 -2.08442 -0.978501 0.103221 0.17855 180 165 132
-0.900262 0.490722 -2.08789 -0.489642 0.21672 0.844561 164 152 132
-0.899047 0.470681 -2.07009 -0.808216 0.0705252 0.584648 167 154 125
-0.898306 0.468373 -2.06448 -0.833274 -0.0180843 0.552564 171 157 127
-0.897564 0.4668 -2.0646 -0.82331 -0.0492699 0.56545 169 156 125
-0.892265 0.468242 -2.06169 -0.867578 -0.0431554 0.495426 195 178 143
-0.910767 0.478353 -2.08136 -0.657271 -0.201076 0.726336 146 134 110
-0.901906 0.472609 -2.07831 -0.97704 0.0475186 0.20769 165 151 121
-0.902507 0.467498 -2.07187 -0.825726 0.0451936 0.562258 155 143 118
-0.901199 0.46525 -2.06908 -0.807148 -0.0346153 0.589334 171 157 126
-0.898314 0.468131 -2.07061 -0.717772 0.0433615 0.694927 168 155 125
-0.900225 0.459983 -2.06336 -0.998295 0.0479843 0.0332453 157 144 119
-0.897758 0.464553 -2.06861 -0.740118 -0.39155 0.546731 143 131 108
-0.859236 0.460555 -2.05566 -0.200372 -0.94913 0.242907 154 141 120
-0.932507 0.493376 -2.10717 -0.449739 0.199225 0.870658 192 175 138
-0.914576 0.477298 -2.08636 -0.685578 -0.215368 0.695414 184 156 122
-0.87042 0.530237 -2.13419 -0.829961 0.0427901 0.556178 190 173 138
-0.904163 0.475089 -2.08374 -0.94923 -0.0920655 0.30081 186 170 137
-0.901859 0.473326 -2.08212 -0.98754 0.00447011 0.157304 184 168 136
-0.901653 0.473592 -2.08225 -0.975837 -0.0488015 0.212982 194 178 144
-0.904761 0.467248 -2.07717 -0.926069 0.0557125 0.373219 166 153 126
-0.901715 0.46756 -2.07558 -0.913851 0.060607 0.401501 150 138 113
-0.903201 0.465723 -2.07809 -0.912467 0.0591851 0.404846 148 135 115
-0.899494 0.466832 -2.07347 -0.877914 0.0612477 0.474884 141 131 107
-0.894629 0.460663 -2.06633 -0.835429 -0.0610553 0.546196 143 131 108
-0.893499 0.460476 -2.06751 -0.776398 -0.00528422 0.630221 143 131 108
-0.850735 0.433481 -2.03347 -0.620529 -0.783628 0.0295309 134 123 101
-0.918196 0.478648 -2.095 -0.599525 0.10405 0.793564 196 180 146
-0.916242 0.477442 -2.09644 -0.445449 0.0245376 0.894971 191 175 138
-0.8732 0.53138 -2.14374 -0.816457 0.035765 0.576297 194 177 142
-0.874602 0.533597 -2.14283 -0.802152 0.0356681 0.596054 183 154 119
-0.87253 0.531947 -2.14037 -0.815983 0.037686 0.576846 180 152 117
-0.871061 0.529537 -2.14128 -0.826683 0.037542 0.561415 180 153 118
-0.869466 0.527206 -2.13851 -0.855263 0.042797 0.516425 189 172 136
-0.87108 0.529493 -2.13753 -0.85891 0.044571 0.510183 189 172 136
-0.869544 0.527241 -2.13474 -0.850471 0.0466678 0.523948 188 171 136
-0.865498 0.526177 -2.13301 -0.859265 0.0605095 0.507939 188 171 136
-0.866928 0.524893 -2.136 -0.823902 0.0515852 0.564379 188 171 136
-0.864623 0.512849 -2.11886 -0.892073 0.117024 0.436477 194 177 141
-0.870479 0.507286 -2.11821 -0.947348 0.146286 0.284837 167 152 124
-0.893262 0.452555 -2.06417 -0.849205 -0.0636326 0.524215 130 120 103
-0.800922 0.49828 -2.09959 -0.652025 0.316231 0.689102 163 133 103
-0.799854 0.503471 -2.10361 -0.73639 0.303377 0.604726 149 133 93
-0.799685 0.498353 -2.09558 -0.497958 0.144536 0.855071 174 146 115
-0.794763 0.495585 -2.09607 -0.556545 0.309906 0.770854 181 164 131
-0.794843 0.495765 -2.09467 -0.532561 0.241344 0.811254 176 149 117
-0.869004 0.528056 -2.14633 -0.757631 0.0286042 0.652056 194 177 141
-0.871335 0.529525 -2.1449 -0.77246 0.0320063 0.634257 194 177 142
-0.868739 0.52802 -2.14269 -0.799928 0.0326161 0.599209 183 154 118
-0.86715 0.525681 -2.14366 -0.792152 0.0336355 0.609397 183 154 118
-0.867247 0.525434 -2.13983 -0.806642 0.0416071 0.589574 189 172 136
-0.862693 0.521933 -2.13494 -0.840579 0.071779 0.536912 188 171 136
-0.863257 0.521463 -2.13844 -0.812597 0.0623765 0.579478 189 171 136
-0.861221 0.508679 -2.12624 -0.623488 0.140742 0.769061 163 149 123
-0.86189 0.508678 -2.1236 -0.717189 0.174418 0.674698 164 150 124
-0.861728 0.508668 -2.12356 -0.712626 0.156683 0.683824 164 150 124
-0.862821 0.500614 -2.11726 -0.783959 0.287447 0.550257 155 141 110
-0.863154 0.500593 -2.11765 -0.795451 0.282186 0.536311 165 151 119
-0.894635 0.447102 -2.06929 -0.904337 -0.018772 0.426406 174 160 137
-0.895262 0.449772 -2.06901 -0.87817 -0.033643 0.477165 168 155 133
-0.890062 0.446331 -2.06593 -0.87605 -0.0335813 0.481049 150 138 116
-0.884933 0.445467 -2.06244 -0.878079 -0.0942247 0.469148 152 141 120
-0.835138 0.495231 -2.10868 -0.690037 0.181721 0.70059 180 163 126
-0.797403 0.494697 -2.10015 -0.696633 0.300125 0.651634 154 139 99
-0.798415 0.492917 -2.09788 -0.582109 0.346511 0.735581 169 132 102
-0.79969 0.493134 -2.10035 -0.738862 0.310064 0.598284 128 111 77
-0.796461 0.490898 -2.0946 -0.605078 0.352957 0.713655 168 130 102
-0.960292 0.481739 -2.11813 -0.422839 -0.883078 0.203423 118 106 80
-0.948152 0.480328 -2.11217 -0.51909 0.249752 0.817416 127 116 92
-0.947224 0.481321 -2.11459 -0.516316 0.248697 0.819492 147 135 108
-0.948476 0.478991 -2.10987 -0.478871 0.152546 0.86453 124 113 87
-0.93614 0.479202 -2.11219 -0.485063 0.175321 0.856724 141 128 99
-0.93733 0.474961 -2.11038 -0.486194 0.17802 0.855526 164 152 124
-0.933565 0.478673 -2.10797 -0.501571 0.163952 0.849439 204 189 155
-0.932158 0.475938 -2.1083 -0.437524 0.0482265 0.897913 135 104 78
-0.865676 0.523348 -2.14461 -0.734023 0.0316675 0.678386 194 177 141
-0.868073 0.525201 -2.14697 -0.721292 0.0306975 0.69195 194 178 142
-0.867176 0.492357 -2.11716 -0.516823 0.25501 0.81723 191 170 135
-0.837587 0.491207 -2.1081 -0.590109 0.127153 0.797247 176 147 110
-0.79839 0.490048 -2.10031 -0.665369 0.343189 0.662952 181 145 115
-0.806078 0.484864 -2.09637 -0.920596 0.0572004 0.386306 147 120 91
-0.788648 0.474856 -2.0865 -0.608498 0.358606 0.707907 165 128 99
-0.785873 0.475494 -2.09029 -0.714997 0.343058 0.609172 124 107 82
-0.793096 0.466887 -2.08295 -0.555844 0.27919 0.783001 131 108 86
-0.792403 0.470537 -2.08285 -0.542273 0.27439 0.794135 135 112 90
-0.79313 0.466877 -2.08294 -0.559388 0.275351 0.781836 131 108 86
-0.788648 0.474856 -2.0865 -0.608498 0.358606 0.707907 165 128 99
-0.792403 0.470537 -2.08285 -0.542273 0.27439 0.794135 135 112 90
-0.939569 0.475359 -2.11243 -0.464769 0.123343 0.876799 166 151 118
-0.937919 0.468388 -2.10934 -0.561691 0.123534 0.818073 194 178 142
-0.934622 0.469702 -2.10763 -0.431571 0.0356929 0.901373 181 153 120
-0.932183 0.473419 -2.11216 -0.540804 0.313657 0.780481 199 183 149
-0.935286 0.473096 -2.11134 -0.497116 0.209754 0.84195 180 166 134
-0.935333 0.466282 -2.10763 -0.586392 0.1295 0.799608 194 178 142
-0.858558 0.479904 -2.11028 -0.481806 0.158849 0.86176 147 127 101
-0.856001 0.473863 -2.10503 -0.591302 0.0403023 0.805443 157 135 108
-0.857824 0.474235 -2.10229 -0.54077 0.0257928 0.840775 163 149 122
-0.797312 0.475752 -2.09638 -0.714144 0.141747 0.685497 151 124 93
-0.787936 0.460635 -2.08243 -0.51007 0.166631 0.843838 140 128 104
-0.784373 0.464484 -2.08379 -0.56155 0.169092 0.809981 133 122 100
-0.784607 0.464419 -2.08377 -0.548518 0.309198 0.776869 144 131 111
-0.783004 0.464829 -2.08388 -0.538565 0.275095 0.796411 133 121 99
-0.785416 0.458567 -2.08014 -0.672661 0.117199 0.730611 131 108 86
-0.779417 0.465495 -2.08275 -0.655915 0.329653 0.679047 138 126 102
0.156184 0.720271 -2.21066 -0.959175 0.200489 -0.199468 153 140 112
0.150869 0.720062 -2.21776 -0.996194 0.0857174 -0.0157864 164 152 124
-0.935098 0.472217 -2.11393 -0.498519 0.217164 0.839237 171 155 122
-0.934348 0.465735 -2.11263 -0.526796 0.296392 0.796642 196 179 143
-0.93492 0.46324 -2.10778 -0.608767 0.0933793 0.787835 195 178 142
-0.934122 0.460758 -2.10579 -0.920083 0.205253 0.333644 195 178 142
-0.93383 0.460825 -2.10825 -0.520163 0.276159 0.808187 192 176 140
-0.873761 0.476737 -2.11348 -0.471161 0.149838 0.869227 192 169 131
-0.857325 0.471152 -2.10649 -0.522331 0.271718 0.808294 161 134 105
-0.85386 0.476795 -2.1089 -0.579158 0.159779 0.799404 138 111 84
-0.854755 0.475432 -2.10722 -0.659934 0.230681 0.715034 149 124 96
-0.853893 0.476784 -2.10889 -0.580783 0.159979 0.798184 145 119 92
-0.857325 0.471152 -2.10649 -0.522331 0.271718 0.808294 162 137 107
-0.856727 0.469413 -2.1075 -0.500442 0.219344 0.837524 178 147 110
-0.850758 0.47538 -2.11059 -0.4997 0.219416 0.837948 156 132 106
-0.852019 0.4741 -2.10806 -0.599607 0.25038 0.760119 161 139 112
-0.85352 0.473449 -2.10522 -0.587851 0.177264 0.789309 179 148 112
-0.851831 0.476126 -2.11028 -0.684782 0.221631 0.694229 139 116 92
-0.856871 0.469298 -2.10226 -0.486724 0.164973 0.857837 160 139 111
-0.85352 0.473449 -2.10522 -0.587851 0.177264 0.789309 179 148 112
-0.850883 0.475377 -2.11024 -0.706045 0.294936 0.643827 162 140 113
-0.847162 0.468004 -2.10332 -0.596676 0.0387669 0.801545 153 141 119
-0.799591 0.460784 -2.08877 -0.517972 0.211058 0.828951 149 113 82
-0.854628 0.465962 -2.10531 -0.502944 0.224839 0.834563 157 144 123
-0.852561 0.470207 -2.10812 -0.514556 0.114288 0.849806 196 180 145
-0.789929 0.449968 -2.08618 -0.627631 0.307463 0.715224 171 134 100
-0.885403 0.404714 -2.07118 -0.587932 0.241339 0.77207 172 157 123
-0.886928 0.420989 -2.08987 -0.831673 0.325832 0.449614 145 130 100
-0.889185 0.403466 -2.07192 -0.775274 0.292817 0.559651 181 166 135
-0.883446 0.399712 -2.07244 -0.700902 0.22057 0.678296 183 168 138
-0.840968 0.433977 -2.10169 -0.431069 0.0190146 0.902119 159 146 124
-0.839289 0.431793 -2.10199 -0.447291 0.0717521 0.891506 159 146 124
-0.833062 0.435458 -2.10507 -0.586516 0.143892 0.797054 162 149 128
-0.888335 0.388891 -2.06454 -0.722557 0.293747 0.625799 138 125 100
-0.848299 0.404005 -2.08528 -0.570204 0.386639 0.724829 160 147 122
-0.831714 0.403911 -2.08384 -0.538288 0.390136 0.747021 170 155 127
-0.831714 0.403911 -2.08384 -0.538288 0.390136 0.747021 170 155 127
-0.86805 0.412701 -2.10284 -0.503264 0.269294 0.8211 194 177 141
-0.867922 0.412525 -2.10278 -0.491823 0.271918 0.827146 160 146 117
-0.904115 0.47936 -2.21944 -0.412944 0.360049 0.836566 144 117 88
-0.904196 0.472697 -2.21765 -0.474067 0.380191 0.794176 153 128 96
0.130794 0.323898 -2.03165 -0.519967 0.53416 0.666564 156 142 123
0.0951995 0.256391 -2.00961 -0.59422 0.278538 0.754533 161 148 125
0.487093 -0.00730878 -1.75665 -0.658421 0.699345 -0.278206 147 128 96
-1.02394 0.230973 -2.00532 -0.481906 0.415108 0.771656 171 151 117
-1.03165 0.222564 -1.99553 -0.47639 0.409465 0.778069 172 154 120
-1.02802 0.214169 -1.99364 -0.942774 0.102924 0.31715 189 172 138
-0.757532 0.247193 -2.04485 -0.503785 0.482374 0.7166 132 96 68
-1.02898 0.333383 -2.14492 -0.369495 0.405795 0.835945 149 132 111
-1.02279 0.33199 -2.13954 -0.335238 0.163528 0.927833 151 133 109
0.143396 0.0869513 -1.91592 -0.767301 -0.579392 0.27487 113 97 70
-1.02604 0.328489 -2.14436 -0.368517 0.410519 0.834068 151 134 112
-1.04482 0.201737 -1.99385 -0.679562 0.308241 0.66572 191 171 135
-1.02997 0.318675 -2.1375 -0.622414 -0.0733768 0.779241 183 167 130
-1.02849 0.320916 -2.13895 -0.551267 -0.0578685 0.83232 139 125 105
-1.02906 0.31721 -2.13808 -0.620036 -0.0729732 0.781173 184 167 130
-1.03957 0.200443 -1.99579 -0.668237 0.288685 0.685653 178 155 117
-1.03536 0.317045 -2.14415 -0.696107 0.0515127 0.716088 170 157 130
-1.03158 0.318292 -2.14149 -0.590977 0.0266176 0.806249 166 153 126
0.500984 0.00548287 -1.9203 -0.95808 -0.0222435 -0.285637 151 135 113
0.500182 0.0110178 -1.92034 -0.927061 0.353954 -0.123591 136 121 98
0.493913 0.00934041 -1.92431 -0.953648 0.0443388 -0.297641 152 137 112
0.495135 0.00745344 -1.91565 -0.94865 0.314593 -0.0330871 151 136 111
0.515913 0.0131969 -1.93449 -0.943566 0.208598 -0.257236 157 145 126
-0.990792 0.203653 -2.03383 -0.693244 0.427711 0.580066 189 172 136
0.499562 -0.00928713 -1.92541 -0.675555 0.724471 -0.136995 110 99 78
-0.995433 0.195185 -2.03357 -0.389571 0.414985 0.822206 184 165 130
0.000447469 -0.304365 -1.57094 -0.532484 0.565892 -0.629467 89 74 48
0.00589387 -0.303532 -1.57631 -0.532376 0.566073 -0.629394 120 105 77
0.878292 -0.29495 -1.72594 -0.521377 0.616576 -0.589915 141 128 102
0.870867 -0.29409 -1.72874 -0.532212 0.566606 -0.629053 145 132 107
0.851153 -0.292977 -1.73053 -0.532202 0.566599 -0.629068 173 158 127
-0.00576105 -0.302823 -1.58128 -0.532775 0.56663 -0.628555 115 99 70
-0.00611864 -0.302339 -1.58133 -0.542785 0.567727 -0.618927 101 86 59
0.00635786 -0.304028 -1.57629 -0.53209 0.56652 -0.629234 120 106 78
0.000225873 -0.309801 -1.57629 -0.532131 0.566469 -0.629246 134 117 83
-0.00502691 -0.310688 -1.57135 -0.532221 0.566371 -0.629258 91 78 55
-0.0166342 -0.314845 -1.5649 -0.532524 0.566577 -0.628815 90 79 61
-0.0166545 -0.315171 -1.56485 -0.532472 0.566574 -0.628862 90 79 61
0.866675 -0.294297 -1.74171 -0.530564 0.58385 -0.614509 173 157 131
0.837556 -0.322781 -1.71449 -0.512008 0.616185 -0.598468 159 146 117
0.00525905 -0.310048 -1.58227 -0.556092 0.528537 -0.641413 118 103 72
0.0041615 -0.309651 -1.58181 -0.454407 0.716333 -0.52951 103 88 58
-0.00792846 -0.316316 -1.5765 -0.53223 0.56636 -0.62926 123 105 69
-0.027175 -0.319877 -1.57018 -0.553675 0.568924 -0.608086 105 92 70
0.858351 -0.309321 -1.75634 -0.529325 0.594544 -0.605254 182 165 131
0.210246 -0.32741 -1.61769 -0.543694 0.5665 -0.619253 157 140 108
-0.0281154 -0.32605 -1.57033 -0.532334 0.566593 -0.628962 119 109 89
0.752193 -0.320116 -1.73602 -0.532196 0.566616 -0.629058 175 159 129
0.199801 -0.334545 -1.61752 -0.598635 0.561995 -0.570787 167 150 118
0.189626 -0.333947 -1.61711 -0.53592 0.5664 -0.626084 163 146 113
0.199356 -0.334663 -1.61801 -0.550683 0.56742 -0.612195 169 152 120
0.58102 -0.0289658 -2.0895 -0.370567 0.306888 0.876641 74 68 60
0.158893 -0.338258 -1.62237 -0.551161 0.570203 -0.609172 149 135 108
0.17935 -0.340005 -1.62357 -0.559693 0.510453 -0.652826 155 141 114
0.177014 -0.340596 -1.61682 -0.535531 0.576223 -0.617393 172 155 122
0.124006 -0.341826 -1.62709 -0.549073 0.542544 -0.63574 158 143 116
0.127886 -0.342061 -1.62716 -0.532454 0.566554 -0.628895 158 144 117
0.143496 -0.344442 -1.62214 -0.532586 0.565626 -0.629619 153 138 112
0.147109 -0.344569 -1.62872 -0.532167 0.566431 -0.629249 159 145 118
0.462621 -0.396921 -1.6478 -0.64675 0.594576 -0.477697 187 170 136
0.547043 -0.412692 -1.65739 -0.532473 0.566599 -0.628839 170 156 124
0.608456 -0.411622 -1.66139 -0.533186 0.566599 -0.628235 165 151 120
0.544021 -0.415945 -1.65769 -0.532122 0.566466 -0.629256 170 156 124
0.852064 -0.444438 -1.72389 -0.489631 0.702001 -0.517162 198 182 149
0.67188 -0.43969 -1.7081 -0.532226 0.566563 -0.62908 176 161 130
0.518299 -0.429903 -1.67581 -0.534395 0.563367 -0.63011 150 138 108
-0.727865 0.154751 -2.16781 -0.46478 -0.784381 0.410763 126 114 88
0.892348 -0.465292 -1.76611 -0.472117 0.706155 -0.527685 166 134 98
0.478424 -0.433114 -1.69162 -0.490656 0.643567 -0.587434 176 150 118
0.839735 -0.472453 -1.76366 -0.548264 0.571582 -0.610492 172 150 110
0.781986 -0.481562 -1.73939 -0.534335 0.566557 -0.627296 174 155 115
0.500469 -0.447761 -1.69576 -0.449815 0.722179 -0.525475 167 149 115
1.24651 -0.997017 -1.27036 -0.215929 0.973074 -0.0806384 151 127 87
1.24294 -1.00585 -1.27017 -0.209259 0.965 -0.158068 151 127 85
1.36672 -1.05179 -1.23533 -0.203126 0.961239 -0.186442 153 131 94
1.37831 -1.06281 -1.23162 -0.201812 0.965905 -0.162172 156 133 96
1.39397 -1.07636 -1.27034 -0.207917 0.956936 -0.202595 154 117 84
1.15278 -1.00246 -1.32824 -0.201959 0.968647 -0.144689 133 120 96
1.12749 -0.992478 -1.33301 -0.208293 0.977405 -0.0359543 130 117 93
1.09793 -0.98857 -1.3339 -0.204183 0.96403 -0.170166 121 105 78
1.05264 -0.95472 -1.43437 -0.218457 0.928717 -0.2996 145 133 106
1.01254 -0.937354 -1.43669 -0.214515 0.961881 -0.169612 150 137 109
1.0583 -0.955129 -1.43035 -0.219353 0.928173 -0.300631 153 140 111
1.01531 -0.946318 -1.46058 -0.21245 0.967806 -0.134973 140 116 89
1.0097 -0.942267 -1.45726 -0.212714 0.972066 -0.0992005 140 115 88
1.00945 -0.944508 -1.45687 -0.212909 0.963163 -0.164276 129 102 78
-0.741105 -0.0139324 -2.14301 -0.513019 -0.851051 0.111907 147 129 91
-0.724754 -0.0288369 -2.13122 -0.498505 -0.845615 0.190862 145 124 89
-0.735492 -0.0349498 -2.11776 -0.508388 -0.841955 0.1807 150 130 95
-0.737683 -0.0336911 -2.11279 -0.497679 -0.841415 0.210564 144 122 88
-0.864715 -0.0372513 -2.07739 -0.576086 -0.817383 0.00332862 183 165 116
-0.891559 -0.0345689 -2.0704 -0.574726 -0.81833 0.00504631 176 157 102
-0.87536 -0.0336069 -2.08658 -0.562865 -0.825563 0.0403461 180 160 105
-0.433511 -0.233698 -2.22389 -0.990599 0.109116 -0.0825126 135 117 90
-0.388022 -0.263709 -2.29968 -0.995436 0.056577 0.0768589 142 114 88
-0.394513 -0.274707 -2.29615 -0.989881 0.121476 -0.0733374 134 105 78
-0.38707 -0.278744 -2.31095 -0.923724 0.343836 -0.168854 141 125 96
-0.944998 0.144012 -2.74473 -0.0874777 0.70568 0.70311 152 105 74
-0.944998 0.133664 -2.73435 -0.0821222 0.708606 0.700809 128 90 64
-0.961741 0.122705 -2.7148 -0.111358 0.347601 0.931007 163 117 82
-0.960839 0.122532 -2.71719 -0.10693 0.228775 0.967589 164 117 82
-0.992128 0.123726 -2.68995 -0.36312 0.711184 0.601965 163 106 68
-0.995027 0.109678 -2.66585 -0.593946 0.634756 0.49428 169 123 87
-0.970952 0.12323 -2.71807 -0.175245 0.725334 0.665717 162 121 87
-0.964977 0.124979 -2.72773 -0.136004 0.687343 0.713486 173 139 105
-0.972786 0.110712 -2.69674 0.0366636 0.684796 0.727812 167 120 85
-1.06076 -0.025821 -2.40636 -0.264551 0.775199 0.573654 173 135 103
-1.09705 -0.0519626 -2.27383 -0.589725 0.688533 0.422075 176 147 117
-1.09374 -0.0538279 -2.28001 -0.49752 0.731913 0.465593 178 159 122
-0.598837 -0.333751 -2.30782 -0.839731 -0.302621 0.450857 131 108 59
-0.59983 -0.332978 -2.30674 -0.86832 -0.274416 0.413179 132 108 59
-1.08996 -0.0407836 -2.34276 -0.408451 0.70774 0.57643 150 103 62
-1.06194 -0.0271006 -2.40313 -0.538675 0.708379 0.456102 173 135 103
-1.10624 -0.0576789 -2.27344 -0.67122 0.632976 0.385752 169 133 102
-1.10078 -0.0561199 -2.27412 -0.582292 0.687414 0.434048 179 149 118
-1.09589 -0.0407786 -2.34522 -0.525444 0.713612 0.46332 165 126 85
-1.08342 -0.0334296 -2.37488 -0.551692 0.700326 0.452968 191 174 138
-1.09842 -0.0457589 -2.32713 -0.174358 0.770802 0.612751 163 123 84
-1.09842 -0.0457609 -2.32712 -0.175326 0.770656 0.612659 163 123 84
-1.09846 -0.0457764 -2.32702 -0.175381 0.771032 0.612169 163 123 84
-1.10318 -0.0598081 -2.2879 -0.695111 0.498807 0.517699 165 123 94
-0.79366 -0.412572 -1.85444 -0.94761 -0.125936 0.293557 168 153 119
-0.776244 -0.43093 -1.83605 -0.706638 -0.626647 0.328598 178 161 128
-0.776244 -0.43093 -1.83605 -0.706638 -0.626647 0.328598 178 161 128
-1.09276 -0.0406208 -2.36788 -0.499419 0.695812 0.516165 171 149 98
-1.11526 -0.0506022 -2.30878 -0.433859 0.748352 0.501733 175 138 107
-1.09276 -0.0406208 -2.36788 -0.499419 0.695812 0.516165 171 149 98
-1.10533 -0.053544 -2.31374 -0.338476 0.731303 0.59214 161 116 84
-1.11809 -0.0633893 -2.27464 -0.562965 0.703167 0.434312 173 135 103
-1.11853 -0.0635303 -2.27343 -0.590376 0.649668 0.478945 173 135 103
-1.11866 -0.0622713 -2.27512 -0.673675 0.63182 0.383362 182 148 117
-1.11705 -0.0643583 -2.26365 -0.577591 0.649139 0.494982 172 134 103
-1.11705 -0.0644595 -2.26365 -0.582745 0.640205 0.500546 172 134 103
-1.10927 -0.0643841 -2.27442 -0.596389 0.688056 0.4134 165 122 93
-1.07477 -0.0972082 -2.25432 0.0860887 0.166389 0.982295 179 151 117
-1.07507 -0.100439 -2.2476 0.00623706 0.296911 0.954885 183 157 123
-1.0729 -0.0997981 -2.24897 -0.131801 0.437716 0.8894 177 147 117
-0.779647 -0.429665 -1.85958 -0.541029 -0.492023 0.682057 180 164 130
-1.13364 -0.0714528 -2.2438 -0.552554 0.649335 0.52254 175 137 106
-1.12072 -0.0665119 -2.27864 -0.541664 0.714889 0.442191 175 138 105
-1.12077 -0.0665007 -2.27839 -0.541539 0.714837 0.442431 175 137 105
-1.13339 -0.0713486 -2.24449 -0.568241 0.649418 0.50533 171 137 104
-1.12077 -0.0665007 -2.27839 -0.541539 0.714837 0.442431 175 137 105
-1.12616 -0.0641388 -2.26975 -0.558746 0.677534 0.478279 175 137 105
-1.12367 -0.0666513 -2.27178 -0.636805 0.545533 0.544861 175 137 105
-1.13365 -0.0714571 -2.24377 -0.550985 0.649094 0.524493 171 137 104
-1.12077 -0.0665007 -2.27839 -0.541539 0.714837 0.442431 175 137 105
-1.12477 -0.0694231 -2.25408 -0.560621 0.646997 0.516816 174 136 104
-1.12463 -0.0695154 -2.25427 -0.558089 0.651331 0.514106 174 136 104
-1.12479 -0.0694333 -2.25401 -0.559934 0.647929 0.516393 174 136 104
-1.12463 -0.0695154 -2.25427 -0.558089 0.651331 0.514106 174 136 104
-1.12572 -0.0733165 -2.24884 -0.546165 0.652654 0.525115 168 124 96
-1.13077 -0.0749451 -2.23559 -0.563663 0.65087 0.508578 168 135 102
-1.12192 -0.0746885 -2.24692 0.0595719 0.228891 0.971628 185 153 122
-1.12308 -0.0770717 -2.24123 0.0260947 0.275084 0.961066 185 154 123
-1.09899 -0.0878827 -2.26012 -0.201553 -0.374563 0.90503 174 139 110
-0.768168 -0.43813 -1.87011 -0.608544 -0.573139 0.548803 183 167 133
-1.14075 -0.0727827 -2.23781 -0.551329 0.647472 0.526134 172 138 105
-1.13785 -0.0749317 -2.24319 -0.514081 0.64756 0.562483 163 118 87
-1.13783 -0.0749262 -2.24322 -0.513637 0.647771 0.562645 163 118 87
-1.13796 -0.0750722 -2.24305 -0.509914 0.647178 0.566699 163 119 87
-1.14075 -0.072768 -2.23783 -0.54862 0.647416 0.529026 172 138 105
-1.14075 -0.0727841 -2.2378 -0.551013 0.647988 0.52583 172 138 105
-1.13236 -0.0742895 -2.24453 -0.539112 0.651143 0.534201 175 138 106
-1.13193 -0.0742422 -2.24563 -0.545126 0.651755 0.527308 161 117 85
-1.13239 -0.0742932 -2.24449 -0.539482 0.650991 0.534013 173 139 105
-1.13193 -0.0742422 -2.24563 -0.545126 0.651755 0.527308 173 139 105
-1.13235 -0.0742855 -2.24456 -0.539977 0.651283 0.533156 173 139 105
-1.13193 -0.0742422 -2.24563 -0.545126 0.651755 0.527308 173 139 105
-1.14542 -0.0751936 -2.24305 -0.283835 0.570476 0.770711 195 177 141
-1.09335 -0.102424 -2.28173 -0.0740777 -0.399597 0.913693 182 163 126
-1.06069 -0.124648 -2.27275 0.176178 -0.64589 0.742824 199 182 149
-1.08502 -0.112699 -2.28672 -0.219543 -0.356343 0.908197 192 173 137
-1.07731 -0.118254 -2.28646 -0.364506 -0.567909 0.73798 183 163 125
-1.07565 -0.118546 -2.28501 -0.238525 -0.48278 0.842632 189 162 118
-1.11396 -0.104277 -2.27826 -0.466393 -0.563348 0.681995 197 181 148
-1.08911 -0.112188 -2.29403 -0.314023 -0.527797 0.789189 185 165 128
-1.07589 -0.122141 -2.28783 -0.313274 -0.639575 0.701999 183 164 126
-1.07166 -0.122527 -2.28647 -0.992166 0.0338364 0.120256 169 148 115
-1.11122 -0.10414 -2.29565 -0.445447 -0.404617 0.798663 154 141 119
-1.10962 -0.109418 -2.28872 -0.312103 -0.480454 0.819607 196 178 143
-1.07741 -0.122262 -2.30704 -0.518225 -0.739387 0.429826 189 172 134
-1.12058 -0.10533 -2.29235 -0.346562 -0.515415 0.783736 201 184 151
-1.0832 -0.122445 -2.31385 0.167829 -0.720097 0.673271 148 133 109
-1.07394 -0.127387 -2.31826 0.150151 -0.713179 0.684711 187 169 131
-0.910029 -0.291433 -2.19802 -0.781656 0.607588 0.140892 199 181 146
0.0920748 -0.998305 -2.50596 -0.526584 0.738745 -0.420672 180 162 132
0.0917041 -0.990907 -2.48934 -0.445373 0.816276 -0.367882 169 148 117
-0.89562 -0.341182 -2.27001 -0.99129 0.0536278 0.120287 186 166 137
0.0958521 -1.01225 -2.49443 -0.465325 0.822085 -0.328098 148 135 109
-0.898026 -0.344764 -2.2743 -0.984084 0.141303 0.107757 175 153 124
0.0939543 -1.02301 -2.52289 -0.523185 0.741574 -0.419935 165 153 125
0.0980095 -1.03089 -2.52189 -0.497503 0.765801 -0.407479 162 150 124
-0.961376 -0.450047 -2.33702 -0.787451 0.60224 0.131253 177 160 127
-0.907434 -0.626326 -2.49711 -0.116554 0.947522 0.297686 166 123 90
-1.03806 -0.54256 -2.19559 -0.192708 0.981251 -0.00328813 151 111 83
-1.03673 -0.543875 -2.18674 -0.214058 0.976424 -0.0278461 148 110 82
-0.871282 -0.718818 -2.21508 -0.389052 0.885454 -0.254185 172 153 116
-1.05408 -0.533582 -2.18017 -0.681873 0.720448 -0.126507 159 121 89
-0.536574 0.61872 -2.00243 -0.977074 0.18362 -0.107754 142 128 105
-0.534422 0.615449 -1.9997 -0.98615 0.153942 -0.0617222 128 115 94
-0.533269 0.615203 -1.99961 -0.981711 0.170851 -0.0839872 127 114 94
-0.535349 0.615624 -2.00329 -0.985368 0.160241 -0.0580693 142 128 106
-0.53098 0.614438 -2.00502 -0.966334 0.229963 -0.115391 120 105 85
-0.965207 0.598239 -2.11222 -0.499242 0.175666 0.848469 122 95 70
-0.878243 0.637219 -2.12656 -0.601 -0.59775 0.53056 127 118 93
-0.88032 0.635507 -2.12585 -0.546865 -0.723547 0.42121 119 110 90
-0.994731 0.643365 -2.17999 -0.575788 -0.256695 0.776258 158 144 116
-1.00495 0.624702 -2.18041 0.241218 -0.465232 0.851688 133 121 95
-0.809699 0.488967 -2.03034 -0.407184 0.174805 0.896462 86 78 66
-0.95926 0.493054 -2.11552 -0.610893 0.284968 0.73865 162 150 121
-0.953522 0.500548 -2.12213 -0.51776 0.241735 0.820664 168 155 125
-0.943709 0.489523 -2.11463 -0.481028 0.159174 0.862134 76 69 50
-0.935063 0.489836 -2.1137 -0.562049 0.0897452 0.822221 157 145 118
-0.942404 0.486137 -2.11132 -0.486591 0.166411 0.857634 140 129 102
0.372359 0.928546 -2.28803 -0.907681 0.279165 -0.31334 148 137 110
0.380937 0.933827 -2.2908 -0.91305 0.261043 -0.313363 160 148 120
0.370756 0.925144 -2.27654 -0.907954 0.278947 -0.312743 145 128 94
-0.955656 0.478611 -2.10989 -0.329861 -0.227786 0.916136 122 100 74
0.35663 0.905508 -2.28604 -0.907807 0.279048 -0.313078 69 64 51
0.658274 1.12075 -2.43612 -0.96183 0.262361 0.0777814 88 80 62
0.386433 0.926993 -2.30518 -0.907695 0.278993 -0.313453 110 102 87
0.352083 0.890637 -2.28605 -0.907928 0.278933 -0.312831 128 118 101
0.363653 0.898827 -2.28811 -0.909582 0.277194 -0.309555 140 130 110
0.347631 0.885196 -2.27233 -0.907765 0.279096 -0.313159 104 89 64
-0.840435 0.409373 -2.08251 -0.509382 0.245123 0.824891 119 109 94
-0.84022 0.408587 -2.08279 -0.505529 0.249457 0.825961 119 110 94
-0.874583 0.377501 -2.0613 -0.933712 -0.285261 -0.216351 130 115 85
-0.836182 0.40667 -2.08303 -0.526337 0.303537 0.794251 130 118 97
-0.228909 -0.273392 -1.35813 -0.894756 -0.446452 -0.00956881 62 56 43
-1.07933 0.296685 -2.03128 -0.918827 -0.393602 -0.0288785 124 101 82
-0.211362 -0.299096 -1.35697 -0.851349 0.479119 -0.213657 139 124 100
-1.13107 0.407802 -2.22433 -0.88753 0.177886 0.425025 137 96 66
-1.1305 0.406097 -2.22174 -0.745555 0.127788 0.654079 114 83 62
-1.13364 0.403378 -2.22462 -0.734752 -0.088474 0.672541 138 101 68
-1.1291 0.402998 -2.22733 -0.86594 0.188911 0.463099 143 105 71
-1.12812 0.401433 -2.22529 -0.916498 0.148215 0.371569 149 115 81
-1.0062 0.247602 -2.09765 -0.885908 -0.436703 0.15639 175 161 129
-1.00656 0.244965 -2.09642 -0.939946 -0.299997 -0.162798 180 166 134
0.402653 -0.0340078 -1.87544 -0.952035 0.178952 -0.248206 168 154 123
0.364365 -0.0407945 -1.85581 -0.770566 0.636455 0.0339633 136 121 91
0.486066 -0.0258416 -1.90926 -0.958083 -0.0225031 -0.285604 132 120 94
0.485578 -0.0336404 -1.89857 -0.958083 -0.0225031 -0.285604 130 119 93
0.341748 -0.0584909 -1.85583 -0.77039 0.636883 0.0296683 152 139 110
0.342802 -0.0585586 -1.85562 -0.772033 0.629312 -0.0890628 152 139 110
0.47401 -0.0365173 -1.9083 -0.958125 -0.0231589 -0.285412 114 104 79
0.495686 -0.0258095 -1.91715 -0.999774 0.0166107 -0.0132845 114 104 81
0.379955 -0.0452585 -1.89371 -0.719971 0.603278 -0.343071 127 115 89
0.585889 0.00499663 -2.01723 -0.961169 -0.0776778 -0.264803 148 135 105
0.528292 -0.0439515 -1.9532 -0.94895 -0.256878 -0.183052 154 141 112
0.527797 -0.0596442 -1.94911 -0.889516 -0.449471 -0.0820744 149 136 106
-0.757245 0.100499 -2.00102 -0.23805 -0.737776 0.631679 137 124 102
0.552435 -0.0468475 -1.98172 -0.95876 -0.0290667 -0.282728 155 141 111
0.393771 -0.141847 -1.84759 -0.604417 -0.109392 0.789122 126 114 88
0.586075 -0.0313692 -2.00927 -0.95963 -0.0460115 -0.277475 124 112 86
0.548791 -0.0481786 -1.99187 -0.958101 -0.0228907 -0.285513 159 146 117
0.533067 -0.0666163 -1.97765 -0.912513 -0.0341045 -0.407624 134 122 96
0.544926 -0.0770553 -1.96422 -0.996865 -0.0191845 -0.0767666 119 107 82
0.54441 -0.0667314 -1.9632 -0.74222 0.50626 -0.439101 130 118 91
0.61885 -0.0178731 -2.0499 -0.958182 -0.0240677 -0.285146 125 114 86
0.592779 -0.039746 -2.02584 -0.958201 -0.0247509 -0.285022 127 114 86
0.592862 -0.039755 -2.02589 -0.959279 -0.0688185 -0.273949 127 114 86
0.59196 -0.0396575 -2.02546 -0.959172 -0.0789623 -0.271575 127 114 86
0.563306 -0.0575119 -1.99665 -0.879559 -0.0633041 -0.47156 161 147 116
0.552656 -0.0761918 -1.9844 -0.958126 -0.0229263 -0.285427 158 145 114
0.549925 -0.0821107 -1.97451 -0.970295 -0.135858 -0.200177 158 145 113
0.609054 -0.0487706 -2.04371 -0.952666 -0.02354 -0.303107 162 148 116
-1.03544 0.110608 -2.0054 -0.187057 -0.320914 0.928453 124 114 93
0.547091 -0.0565243 -2.08617 -0.338224 0.15261 0.928609 129 118 90
0.598445 -0.119175 -2.07747 -0.384355 0.318029 0.866677 153 141 113
-0.765021 -0.0142505 -1.94633 -0.333235 -0.814326 0.475213 148 135 105
0.334489 -0.33538 -2.11066 -0.590528 0.660676 -0.463448 34 32 20
-0.643114 -0.0113317 -2.35351 0.0576477 0.442295 0.895015 112 85 59
-0.8292 0.0866181 -2.4112 -0.0633753 -0.0952851 0.993431 96 86 63
-0.72097 0.0184015 -2.37397 0.0143068 0.300596 0.953644 91 82 71
-0.713181 0.0182185 -2.37193 0.00510833 0.317509 0.948242 131 120 100
-0.704038 0.0124775 -2.37401 0.00553954 0.319178 0.947679 136 113 82
-0.679335 -0.00328277 -2.3582 -0.0475078 0.502441 0.863305 92 70 59
-0.66235 -0.0111288 -2.35527 -0.0337187 0.418739 0.90748 128 103 82
-0.654505 -0.0115466 -2.35281 -0.0324824 0.423661 0.905238 139 111 82
-0.885615 0.0915699 -2.39559 -0.197087 0.593156 0.780591 150 134 102
-0.826988 0.0779686 -2.40703 -0.0344087 -0.197187 0.979762 96 81 55
-0.822813 0.0702866 -2.40547 -0.0884638 -0.129901 0.987573 117 101 72
-0.7448 0.0247341 -2.37652 0.0222519 0.408398 0.912533 140 119 90
-0.717626 0.0113078 -2.3701 -0.136526 0.363236 0.92164 92 76 58
-0.71037 0.00510069 -2.37027 0.00148979 0.39549 0.918469 156 132 95
-0.702355 0.000579425 -2.36541 -0.0557545 0.231537 0.971227 135 120 97
-0.693962 -0.00675995 -2.36586 0.0783652 0.420976 0.90368 177 153 119
-0.6905 -0.00371185 -2.36356 0.0184558 0.532272 0.846372 154 124 94
-0.67781 -0.0120416 -2.3525 -0.147774 0.449622 0.880911 147 127 105
-0.665907 -0.0190832 -2.35437 -0.0379604 0.460188 0.88701 151 130 105
-0.539794 -0.234193 -2.07975 -0.316097 0.872833 0.371815 189 170 136
-0.956869 0.0983897 -2.37821 0.0710926 -0.129543 0.989022 130 115 86
-0.938563 0.0994946 -2.38556 -0.10586 -0.254453 0.961274 118 104 78
-0.891629 0.101974 -2.42275 0.128111 0.165016 0.977935 88 73 48
-0.889254 0.0763362 -2.38985 -0.209936 -0.2907 0.933499 147 125 95
-0.880073 0.0771291 -2.39303 -0.248215 -0.266405 0.931353 91 64 41
-0.88002 0.077477 -2.39274 -0.231001 -0.306159 0.923529 95 69 42
-0.827097 0.0739575 -2.41804 -0.0282863 -0.0155468 0.999479 129 116 88
-0.74279 0.0133778 -2.37921 -0.194778 0.434812 0.879204 173 152 118
-0.740041 0.00871074 -2.37525 -0.07921 0.518934 0.851136 178 158 123
-0.728924 0.00630796 -2.37431 -0.276244 0.318106 0.906917 164 149 120
-0.713711 -0.00445055 -2.35852 0.0583006 0.492046 0.868615 174 155 124
-0.706995 -0.005229 -2.36374 0.0554224 0.49661 0.866202 161 139 106
-0.721166 -0.00868302 -2.35933 0.0363773 0.529877 0.847294 168 146 111
-0.548244 -0.227221 -2.10266 -0.270985 0.820133 0.503934 177 155 117
-0.55304 -0.237739 -2.07352 -0.509842 0.859879 0.0258819 193 174 139
-0.950179 0.0893651 -2.37911 0.0743335 0.422444 0.903336 153 140 112
-0.93923 0.0857823 -2.38136 -0.162961 0.414551 0.895316 125 116 93
-0.905619 0.0756138 -2.38457 -0.203177 0.688647 0.696049 171 155 122
-0.911775 0.0762958 -2.38522 -0.181945 0.681713 0.708635 181 166 133
-0.910199 0.0730029 -2.38354 -0.0189502 0.603769 0.796934 183 168 137
-0.911775 0.0722581 -2.38134 -0.00633958 0.595561 0.803285 183 169 138
-0.89634 0.0776303 -2.39628 -0.193231 -0.290941 0.937025 163 146 112
-0.888132 0.0798327 -2.39824 -0.212877 -0.305724 0.928017 135 119 90
-0.89896 0.0744494 -2.39002 -0.00852099 0.595072 0.803627 154 140 111
-0.88808 0.0774225 -2.39478 -0.199051 -0.291305 0.935692 154 139 110
-0.887961 0.0773353 -2.39471 -0.199399 -0.290394 0.935901 154 139 110
-0.881309 0.06815 -2.39384 -0.149349 -0.245398 0.957849 162 139 107
-0.879479 0.0745102 -2.3979 -0.258689 -0.185054 0.948069 133 109 83
-0.859799 0.0654688 -2.40339 -0.182678 -0.273058 0.944494 164 148 118
-0.856234 0.0650008 -2.40778 -0.179328 -0.271513 0.94558 166 150 123
-0.859021 0.0674598 -2.40762 -0.173685 -0.272706 0.94629 151 137 115
-0.846038 0.0598143 -2.40742 -0.557151 -0.22348 0.799774 167 150 120
-0.661683 -0.0416697 -2.35636 -0.11984 0.305117 0.944744 214 200 169
-0.582874 -0.23597 -2.07741 -0.317452 0.86123 0.396871 183 163 125
-0.96894 0.0909283 -2.37573 0.185735 0.0974488 0.977756 139 125 95
-0.953285 0.0869122 -2.38276 -0.00516537 0.522845 0.852412 163 148 114
-0.941744 0.0772523 -2.3815 0.0998849 0.19308 0.976085 169 149 116
-0.917117 0.0717439 -2.39126 -0.343095 0.716348 0.607562 183 164 129
-0.890336 0.0675404 -2.39406 -0.208987 -0.284728 0.93555 168 144 111
-0.888177 0.0624514 -2.39268 -0.0683331 -0.17986 0.981316 177 160 127
-0.879911 0.0659416 -2.39505 -0.1788 -0.265439 0.947403 171 155 123
-0.87739 0.0609154 -2.39411 -0.0101264 -0.134868 0.990812 176 158 126
-0.843016 0.0564225 -2.40944 -0.374664 -0.335637 0.864277 176 159 126
-0.838894 0.049775 -2.40959 -0.345756 0.160871 0.924432 165 147 113
-0.841204 0.0553429 -2.40491 0.026416 0.412599 0.91053 177 159 122
-0.81201 0.0529272 -2.42022 -0.0928431 -0.041501 0.994816 175 156 117
-0.743346 0.00351817 -2.38472 -0.449176 0.199683 0.870843 171 149 113
-0.881236 0.12811 -2.53157 -0.771895 0.513835 0.374367 175 155 120
-0.879115 0.125508 -2.52854 -0.742355 0.520692 0.421651 172 151 114
-0.868065 0.0482912 -2.39988 -0.0474889 -0.155175 0.986745 186 167 130
-0.832844 0.0445441 -2.41635 -0.278959 -0.252536 0.926503 184 164 126
-0.810344 0.0408088 -2.42581 -0.0832479 -0.0342189 0.995941 162 141 106
-0.815768 0.0388831 -2.41637 -0.023331 -0.245321 0.969161 187 167 129
-0.794803 0.037257 -2.43021 -0.261162 0.0251823 0.964967 176 158 117
-0.804151 0.0353328 -2.42449 -0.365449 -0.114751 0.923731 186 166 128
-0.923466 0.110131 -2.48487 -0.137749 -0.195789 0.970923 161 142 109
-0.881729 0.124487 -2.53455 -0.835889 0.467035 0.288388 179 160 124
-0.880715 0.120729 -2.52203 -0.774721 0.461902 0.431804 170 149 113
-0.868748 0.108619 -2.52024 -0.439536 0.572013 0.692538 160 138 100
-0.868861 0.105377 -2.51643 -0.349444 0.580722 0.73529 171 150 114
-0.867265 0.0460763 -2.40027 -0.205832 -0.265798 0.941799 194 176 139
-0.875531 0.0446278 -2.39882 -0.183183 -0.250378 0.95066 194 175 138
-0.852784 0.0436913 -2.4097 -0.0994436 -0.200666 0.974599 188 169 132
-0.852771 0.0436785 -2.40972 -0.0993336 -0.20054 0.974637 188 169 132
-0.84273 0.0440486 -2.41717 -0.0801915 0.306342 0.948538 188 167 129
-0.847431 0.0387027 -2.4147 -0.0477405 -0.0599662 0.997058 193 174 136
-0.839221 0.0424515 -2.41665 -0.176722 -0.258137 0.949808 191 171 133
-0.839261 0.0424911 -2.41661 -0.173909 -0.256629 0.950735 191 171 133
-0.842063 0.0407365 -2.41207 -0.0792168 -0.181188 0.980253 173 153 116
-0.820564 0.0358448 -2.42152 -0.166837 -0.116298 0.979102 183 162 124
-0.380258 -0.215149 -2.31044 -0.529079 0.847445 0.0437278 175 147 100
-0.384822 -0.225789 -2.30055 -0.89562 0.440428 0.0623506 184 158 119
-0.373397 -0.217364 -2.30516 -0.452008 0.876003 0.168248 172 145 100
-0.421748 -0.231428 -2.2556 -0.982637 0.169679 -0.0750595 166 150 118
-0.425617 -0.232686 -2.25257 -0.977032 0.199817 -0.0740331 167 150 116
-0.426624 -0.235074 -2.24605 -0.963243 0.181059 0.198446 155 151 109
-0.434561 -0.238761 -2.23975 -0.987577 0.150038 -0.0466978 158 141 107
-0.43254 -0.234512 -2.23403 -0.919125 0.385131 -0.082972 147 129 96
-0.416675 -0.248705 -2.23576 -0.992059 0.086927 -0.0909047 137 116 85
-0.9144 0.106629 -2.49097 -0.307189 -0.250495 0.918089 169 146 109
-0.911282 0.102021 -2.48963 -0.309913 -0.246275 0.918315 171 153 117
-0.869647 0.0402861 -2.40811 -0.200097 -0.265915 0.943001 201 183 147
-0.854198 0.0330429 -2.41378 -0.265599 -0.273921 0.924351 191 173 136
-0.839633 0.0274285 -2.41794 -0.271494 -0.0765381 0.959392 185 168 132
-0.842212 0.0270356 -2.41072 -0.169865 -0.232583 0.957628 195 177 141
-0.82664 0.022622 -2.42028 -0.0735494 -0.0151147 0.997177 185 167 131
-0.818811 0.0243226 -2.41793 -0.0880924 -0.172431 0.981075 177 158 122
-0.389853 -0.231235 -2.29812 -0.874038 -0.117254 0.471496 207 191 159
-0.401183 -0.229431 -2.28302 -0.824317 -0.0645489 0.562436 201 183 147
-0.421448 -0.236755 -2.26479 -0.950193 -0.225557 0.215076 161 143 109
-0.418173 -0.241299 -2.25617 -0.994996 0.0112293 0.0992822 156 139 108
-0.426505 -0.249195 -2.24377 -0.886423 0.0787335 0.45613 152 132 98
-0.423248 -0.246904 -2.23974 -0.996068 0.0507455 -0.0726186 151 131 96
-0.42244 -0.251709 -2.23574 -0.988714 0.120732 -0.088706 144 126 91
-0.419011 -0.253303 -2.23871 -0.991879 0.126577 -0.0124217 144 125 91
-0.430604 -0.258932 -2.22476 -0.994875 0.0646238 -0.077767 158 141 107
-0.425756 -0.255849 -2.22372 -0.981613 0.161813 -0.101259 153 134 101
-0.429862 -0.263939 -2.21743 -0.997722 0.0511079 0.0440236 154 139 106
-0.435046 -0.268616 -2.20472 -0.992904 0.0753434 -0.0920025 159 146 114
-0.438251 -0.281781 -2.18031 -0.989228 -0.0673181 0.12999 152 137 106
-0.913912 0.0963833 -2.48728 -0.0744653 -0.160672 0.984195 146 127 96
-0.915861 0.0974673 -2.49046 -0.271691 -0.233431 0.933646 166 148 112
-0.901467 0.0892148 -2.49441 0.128815 -0.0482114 0.990496 164 146 109
-0.902259 0.0907387 -2.49925 -0.192183 -0.212897 0.957988 164 146 110
-0.901532 0.0892533 -2.49431 0.137836 -0.0421627 0.989557 164 146 109
-0.901744 0.0902958 -2.49734 -0.203409 -0.214457 0.955318 164 146 109
-0.906846 0.0336971 -2.39252 -0.367685 0.749101 0.551049 186 168 134
-0.902178 0.0327747 -2.38981 -0.217124 0.727409 0.650948 185 169 134
-0.902338 0.0260557 -2.38106 -0.261882 0.741274 0.618006 181 164 129
-0.848055 0.0247759 -2.41516 -0.289197 -0.251186 0.923727 186 168 132
-0.848249 0.022658 -2.41095 -0.257583 -0.281961 0.924202 189 171 136
-0.733773 -0.0552682 -2.3626 0.10092 0.377963 0.920304 158 140 105
-0.408759 -0.240564 -2.28028 -0.980014 0.185016 -0.0730874 138 102 60
-0.38542 -0.241093 -2.30017 -0.977879 -0.0261832 0.207527 170 145 108
-0.421925 -0.253441 -2.25463 -0.990177 -0.0713079 0.120269 154 134 99
-0.422591 -0.252499 -2.25465 -0.979667 -0.069571 0.188183 154 134 99
-0.410289 -0.257031 -2.2514 -0.997804 0.00132965 0.0662301 136 117 84
-0.412077 -0.261992 -2.24243 -0.993907 0.110114 -0.0048857 158 142 109
-0.421561 -0.272542 -2.22071 -0.933957 -0.106407 0.341178 157 141 107
-0.43403 -0.287957 -2.17686 -0.982893 0.0776463 0.167011 153 139 106
-0.448984 -0.296935 -2.16184 -0.885882 -0.435596 0.159588 165 149 118
-0.434807 -0.297454 -2.15654 -0.978897 0.135055 -0.153364 146 138 98
-0.909421 0.088512 -2.49399 -0.131699 -0.184441 0.97398 167 148 112
-0.399339 -0.248068 -2.3034 -0.966593 -0.11371 0.229714 149 117 86
-0.399735 -0.248631 -2.30316 -0.967795 -0.137293 0.211008 141 104 77
-0.393887 -0.253048 -2.29627 -0.991613 0.0535326 0.117634 138 102 77
-0.393497 -0.253526 -2.29641 -0.992454 0.0515753 0.11124 138 102 77
-0.413075 -0.276061 -2.23446 -0.980854 0.193756 -0.0196114 170 155 121
-0.403554 -0.280495 -2.248 -0.950021 0.0700037 0.304237 176 161 127
-0.434729 -0.297181 -2.17689 -0.993657 0.0629107 -0.093209 166 147 111
-0.43616 -0.306576 -2.17581 -0.901077 -0.353561 0.251107 177 161 127
-0.435609 -0.302151 -2.16871 -0.99846 0.0345957 -0.0433734 156 137 101
-0.441825 -0.311095 -2.16326 -0.732023 -0.5795 0.358222 178 161 128
-0.432431 -0.308353 -2.16837 -0.90443 0.384947 -0.183909 187 174 144
-0.433189 -0.306747 -2.16645 -0.995967 0.0518429 -0.07322 186 173 143
-0.904105 0.0790671 -2.50197 -0.174884 -0.200317 0.963996 175 157 122
-0.386356 -0.268944 -2.29062 -0.989391 0.126751 0.0709936 169 141 112
-0.386187 -0.269316 -2.29084 -0.989095 0.129124 0.0708359 162 134 103
-0.393857 -0.291787 -2.24738 -0.99045 0.12473 0.0587418 181 165 130
-0.415535 -0.293766 -2.22476 -0.995943 0.029459 -0.0850316 151 132 98
-0.42715 -0.310546 -2.17758 -0.917218 -0.341535 0.2051 190 176 144
-0.929451 0.0506883 -2.44763 -0.263054 0.718436 0.643935 172 138 107
-0.970828 0.0246174 -2.36864 -0.825387 0.441612 0.351732 151 125 97
-0.745209 -0.0850896 -2.34518 0.0841141 0.19055 0.978067 179 161 125
-0.419754 -0.309365 -2.20995 -0.920132 0.33529 0.20233 168 150 113
-0.419795 -0.313949 -2.20205 -0.950238 0.311523 0.00138745 180 165 130
-0.422284 -0.318592 -2.1934 -0.9626 0.244059 -0.117626 161 143 105
-0.423118 -0.325063 -2.18383 -0.959411 0.229705 -0.163605 166 148 110
-0.82769 -0.297251 -1.8876 -0.844477 0.394515 0.362238 176 160 132
-0.831933 -0.296136 -1.88392 -0.970427 0.00442758 0.241353 145 135 107
-0.970887 0.0210564 -2.37161 -0.824221 0.455818 0.335991 152 126 98
-0.972602 0.0167204 -2.35815 -0.738014 0.525328 0.423517 170 139 109
-0.42174 -0.324424 -2.20359 -0.962538 0.228957 -0.145255 173 155 117
-0.974719 0.0120018 -2.35873 -0.816372 0.449727 0.362331 172 143 112
-0.974111 0.00398788 -2.35621 -0.858406 0.379522 0.345113 175 146 114
-0.975063 0.00724369 -2.36748 -0.815253 0.45191 0.362132 157 132 103
-0.974509 0.00394907 -2.37055 -0.821953 0.455825 0.341492 186 156 124
-0.97341 0.00796727 -2.37645 -0.81358 0.466908 0.346532 177 150 117
-0.976755 0.00621845 -2.37339 -0.816798 0.450351 0.360589 178 151 118
-0.972547 0.00131354 -2.3597 -0.87355 0.362759 0.324524 175 149 115
-0.971451 -0.00251447 -2.35969 -0.813849 0.466555 0.346375 178 147 115
-0.978394 0.00520051 -2.37943 -0.824155 0.453014 0.339922 177 146 112
-0.972742 0.00447737 -2.37966 -0.764461 0.500817 0.405933 175 144 110
-0.972647 0.0043873 -2.37969 -0.764379 0.501035 0.405817 175 144 110
-0.973619 0.000555793 -2.37394 -0.848099 0.436856 0.299807 185 157 125
-0.964584 -0.00349414 -2.36815 -0.716879 0.523341 0.460651 189 172 136
-0.964323 -0.00427084 -2.36888 -0.711001 0.523317 0.469698 172 135 103
-0.70103 -0.0512299 -2.53921 -0.42196 0.398468 0.814354 146 124 92
-0.962089 -0.00126171 -2.40243 -0.534187 0.667973 0.518128 182 166 132
-0.952044 -0.0273037 -2.36183 -0.437505 -0.391613 0.809462 174 131 99
-0.905016 0.0344482 -2.66756 -0.521467 -0.0940024 0.848078 186 159 125
-0.909119 0.0286207 -2.66128 -0.852463 0.414854 0.318124 208 193 161
-1.05217 -0.121871 -2.17814 -0.56817 0.224754 0.791624 207 191 157
-1.04693 -0.121149 -2.17571 -0.35848 0.528717 0.769383 203 187 154
-1.04699 -0.124706 -2.17182 -0.576357 0.653585 0.490549 166 152 128
-1.0526 -0.125447 -2.17376 -0.636059 0.652822 0.411402 180 164 133
-0.970167 0.0406721 -2.66409 0.283293 0.094727 0.954344 180 159 124
-1.08571 -0.0461188 -2.33022 -0.585013 0.621567 0.520974 165 118 83
-1.09152 -0.0511499 -2.3117 -0.523895 0.651487 0.548724 180 138 110
-1.09978 -0.0554067 -2.28826 -0.700791 0.525117 0.482851 180 138 111
-1.05657 -0.129824 -2.17383 -0.694337 0.669284 0.264491 168 152 124
-1.09248 -0.047118 -2.33269 -0.383433 0.505179 0.773158 163 116 77
