ply
format ascii 1.0
element face 0
property list uchar int vertex_indices
element vertex 384
property float x
property float y
property float z
property uchar diffuse_red
property uchar diffuse_green
property uchar diffuse_blue
end_header
-6.453090e-02 -2.990238e-01 -1.876779e+00 27 29 7
-3.360188e-01 2.704627e-01 -1.881245e+00 169 102 81
2.217195e-01 -1.239417e-01 -2.107137e+00 85 50 0
2.929963e-01 -2.193288e-01 -2.062731e+00 239 236 225
-1.926675e-01 -1.381295e-01 -1.975411e+00 230 181 54
-3.280582e-01 -1.039397e-01 -1.933884e+00 246 242 227
3.234473e-01 -2.202703e-01 -2.054934e+00 199 139 29
-3.219874e-01 -1.096057e-01 -1.942160e+00 136 102 38
-2.511901e-01 -1.177061e-01 -1.966291e+00 222 172 49
2.282560e-01 3.208592e-01 -2.113251e+00 195 189 164
2.338785e-01 3.322611e-01 -2.107597e+00 188 182 148
-5.172553e-02 3.574376e-01 -1.959314e+00 61 63 50
2.803203e-01 -2.812684e-01 -2.013113e+00 169 111 13
2.397774e-01 3.188583e-01 -2.106950e+00 192 185 167
3.381176e-01 3.129926e-01 -2.049074e+00 210 205 175
-2.552026e-01 8.717689e-02 -1.886404e+00 57 51 39
-3.366930e-01 1.937591e-01 -1.809030e+00 85 56 74
1.917022e-02 2.970113e-01 -1.990846e+00 67 67 59
2.366934e-01 3.242325e-01 -2.106349e+00 34 38 24
-3.301390e-01 -1.098416e-01 -1.940573e+00 249 246 232
-3.228221e-01 -1.014016e-01 -1.938295e+00 241 241 223
-3.228221e-01 -1.014016e-01 -1.938295e+00 241 241 223
-3.146548e-01 -1.012356e-01 -1.949387e+00 36 38 8
-1.977576e-01 -1.178969e-01 -1.970836e+00 61 48 32
-2.035983e-01 -1.094910e-01 -1.964806e+00 125 86 57
-2.002876e-01 -8.422281e-02 -1.954519e+00 53 42 22
-1.884319e-01 -5.317857e-02 -1.938550e+00 98 88 62
-2.573766e-01 9.165368e-02 -1.884787e+00 203 201 191
-3.406645e-01 1.226337e-01 -1.919401e+00 30 27 22
-3.331699e-01 2.743834e-01 -1.881551e+00 175 83 75
-3.339880e-01 2.793021e-01 -1.867435e+00 248 111 70
4.024797e-02 3.014332e-01 -1.991009e+00 35 38 27
-1.883534e-01 -4.461235e-02 -1.934574e+00 100 84 55
-3.419658e-01 2.884253e-01 -1.857199e+00 244 220 197
-3.414133e-01 2.942935e-01 -1.853792e+00 247 222 191
8.505989e-02 3.356431e-01 -2.033042e+00 49 53 39
8.279916e-02 3.508305e-01 -1.989208e+00 180 175 147
-3.540774e-01 -1.235923e-01 -1.923795e+00 233 178 60
-3.192871e-01 -1.086045e-01 -1.939440e+00 145 107 46
-3.192871e-01 -1.086045e-01 -1.939440e+00 145 107 46
-3.421062e-01 -1.016335e-01 -1.932686e+00 198 151 65
-3.162035e-01 -9.829401e-02 -1.948843e+00 207 198 157
-2.828997e-01 -9.228777e-02 -1.951599e+00 224 204 136
-2.566731e-01 8.829981e-02 -1.884266e+00 58 58 46
-3.379108e-01 1.238997e-01 -1.923459e+00 136 130 103
4.431189e-02 3.015990e-01 -1.990364e+00 102 104 90
-3.139693e-01 -9.837426e-02 -1.954534e+00 175 145 86
-3.514138e-01 2.253438e-01 -1.838119e+00 238 244 251
-3.423677e-01 2.308109e-01 -1.844416e+00 180 201 216
-3.310800e-01 2.806829e-01 -1.878181e+00 170 88 84
-3.453139e-01 2.813099e-01 -1.860691e+00 245 219 196
-3.360189e-01 2.885393e-01 -1.861522e+00 255 174 149
-3.360189e-01 2.885393e-01 -1.861522e+00 255 174 149
-3.404569e-01 2.985646e-01 -1.850712e+00 252 221 190
-2.215671e-01 3.380551e-01 -1.987249e+00 252 249 237
-3.377415e-01 3.170317e-01 -1.847956e+00 255 237 214
2.168791e-01 3.392230e-01 -2.018516e+00 185 169 103
7.698703e-02 3.527631e-01 -1.989226e+00 234 237 205
2.185598e-01 3.435684e-01 -2.019946e+00 103 105 89
-2.840278e-01 7.868713e-02 -1.870033e+00 227 231 219
-3.442290e-01 2.801947e-01 -1.861612e+00 175 99 91
-3.438109e-01 2.827780e-01 -1.860116e+00 179 98 78
-3.438109e-01 2.827780e-01 -1.860116e+00 179 98 78
-3.425250e-01 2.896283e-01 -1.855709e+00 201 101 93
8.297263e-02 3.493162e-01 -1.990212e+00 199 189 163
7.690954e-02 3.503368e-01 -1.990431e+00 196 188 169
8.837306e-02 3.504066e-01 -1.990154e+00 46 48 36
8.815952e-02 3.508858e-01 -1.992151e+00 46 48 36
9.013466e-02 3.517834e-01 -1.992011e+00 209 212 197
8.508657e-02 3.532600e-01 -1.990847e+00 54 56 51
1.507930e-01 2.778990e-01 -2.009076e+00 48 50 38
7.247349e-02 2.570996e-01 -1.971785e+00 42 44 28
7.877043e-02 3.496942e-01 -1.989449e+00 201 196 168
9.098602e-02 3.489682e-01 -1.993269e+00 203 197 178
9.098602e-02 3.489682e-01 -1.993269e+00 203 197 178
-6.099255e-02 -3.158312e-01 -1.880721e+00 119 118 98
-6.152130e-02 -3.162817e-01 -1.881610e+00 116 115 96
3.104724e-01 2.616906e-01 -2.056429e+00 87 88 74
2.191054e-01 -1.845757e-01 -2.055564e+00 177 127 28
2.351204e-01 -2.607865e-01 -2.022261e+00 206 155 47
2.710042e-01 -1.993233e-01 -2.065997e+00 174 118 21
2.951780e-01 1.862042e-01 -1.977983e+00 95 125 81
-3.182552e-01 -9.007515e-02 -1.941640e+00 238 236 195
-6.077201e-02 -3.113079e-01 -1.872351e+00 119 118 100
-4.198490e-01 2.192173e-01 -1.807457e+00 67 51 34
-7.330117e-02 -3.023276e-01 -1.873510e+00 71 66 45
3.061368e-01 -2.392367e-01 -2.040290e+00 204 150 38
-3.206678e-01 1.148725e-01 -1.917744e+00 187 163 112
2.915645e-01 2.038133e-01 -1.995783e+00 192 211 218
-4.117915e-01 2.439470e-01 -1.831628e+00 57 75 153
-2.822892e-01 3.143654e-01 -1.949408e+00 48 46 38
7.682831e-02 -3.283484e-01 -1.923180e+00 225 182 67
2.445959e-01 -2.196121e-01 -2.026663e+00 37 41 26
1.925287e-01 2.823064e-01 -2.025159e+00 34 35 24
-3.467377e-01 2.651275e-01 -1.872617e+00 238 104 65
-2.755723e-01 3.141258e-01 -1.953015e+00 249 248 246
-7.440123e-02 -2.953336e-01 -1.873955e+00 228 185 73
-1.750185e-01 -1.188654e-01 -1.997702e+00 147 100 21
-2.941465e-01 -6.833912e-02 -1.944552e+00 213 161 49
-2.627333e-01 6.080985e-02 -1.880762e+00 64 46 24
2.077235e-01 2.475568e-01 -2.004273e+00 60 60 50
-3.476357e-01 2.276816e-01 -1.833460e+00 103 144 179
1.870551e-01 2.716454e-01 -2.011015e+00 35 35 23
1.408029e-01 2.783625e-01 -2.006478e+00 50 51 45
-3.700470e-01 2.591641e-01 -1.832663e+00 209 207 198
3.459655e-02 2.989299e-01 -1.990246e+00 166 164 151
-1.503005e-02 3.083988e-01 -1.979975e+00 113 114 97
-6.879969e-02 3.334684e-01 -2.026031e+00 188 184 161
-1.104777e-01 3.459487e-01 -2.010587e+00 211 204 188
-2.529523e-01 3.510540e-01 -1.991287e+00 63 57 53
-6.694206e-02 -3.319219e-01 -1.873792e+00 194 148 51
-6.793423e-02 -2.892391e-01 -1.874638e+00 215 209 197
-2.511690e-01 -1.096163e-01 -1.961088e+00 87 73 39
-4.797933e-01 -4.567826e-03 -1.926218e+00 222 179 51
-2.530052e-01 4.972678e-02 -1.879188e+00 41 35 23
2.519180e-01 1.550382e-01 -1.935385e+00 87 115 80
2.673557e-01 1.574795e-01 -1.941757e+00 155 207 107
3.391769e-01 1.574873e-01 -1.966540e+00 125 183 99
3.112155e-01 1.844141e-01 -1.983490e+00 217 214 173
2.730743e-01 2.047757e-01 -1.993034e+00 80 84 81
1.867176e-01 2.487910e-01 -1.997795e+00 42 42 30
-3.587128e-01 2.262479e-01 -1.832448e+00 254 255 253
-3.387230e-01 2.348876e-01 -1.846024e+00 253 253 254
1.604201e-01 2.766003e-01 -2.009929e+00 32 34 25
1.022169e-01 2.788848e-01 -1.993168e+00 32 33 25
3.775352e-02 2.936963e-01 -1.989896e+00 41 43 30
3.192107e-02 2.949078e-01 -1.987524e+00 29 32 25
-3.403954e-01 2.932730e-01 -1.857674e+00 222 74 31
-3.919326e-01 2.846292e-01 -1.806033e+00 103 104 106
-3.313935e-01 3.026120e-01 -1.857697e+00 245 201 181
-3.877228e-01 2.878730e-01 -1.804841e+00 229 230 229
-3.005573e-01 3.692490e-01 -1.996821e+00 113 114 98
2.914688e-01 -2.484223e-01 -2.043336e+00 214 166 62
-3.241833e-01 -9.824336e-02 -1.942414e+00 199 143 49
-2.013235e-01 -8.851869e-02 -1.958810e+00 70 56 30
-4.590091e-01 -2.864006e-03 -1.940215e+00 202 144 23
-2.579265e-01 9.970517e-02 -1.881645e+00 16 16 14
-3.371261e-01 1.122646e-01 -1.907924e+00 147 124 74
3.190127e-01 1.510328e-01 -1.952996e+00 87 156 77
2.862369e-01 1.513425e-01 -1.941636e+00 140 205 103
2.930167e-01 1.515782e-01 -1.943756e+00 146 214 102
2.479181e-01 1.749370e-01 -1.952061e+00 76 112 67
3.284013e-01 1.837997e-01 -1.989430e+00 88 120 70
3.072683e-01 1.838651e-01 -1.982188e+00 103 112 74
3.353496e-01 1.908820e-01 -1.998660e+00 190 197 164
2.479694e-01 1.945498e-01 -1.953651e+00 101 101 93
-4.259808e-01 2.193772e-01 -1.799414e+00 84 62 60
1.920668e-01 2.697249e-01 -2.011034e+00 93 94 84
9.894126e-02 2.717149e-01 -1.989635e+00 86 98 84
1.740191e-01 2.741338e-01 -2.006349e+00 34 37 28
-1.216157e-02 2.893860e-01 -1.971511e+00 29 31 23
-3.679359e-01 2.623694e-01 -1.838987e+00 172 97 135
-1.055251e-02 2.966520e-01 -1.979001e+00 28 29 23
7.066279e-02 3.061019e-01 -2.032054e+00 223 222 202
-3.375803e-01 2.746030e-01 -1.863696e+00 229 75 47
-3.754056e-01 2.982091e-01 -1.811150e+00 253 252 249
-3.754056e-01 2.982091e-01 -1.811150e+00 253 252 249
-1.122028e-01 3.502112e-01 -2.013090e+00 213 208 202
-3.343929e-01 3.161756e-01 -1.848974e+00 220 65 36
-4.500947e-02 3.635455e-01 -1.958295e+00 31 31 21
1.592117e-01 -3.511405e-01 -1.903925e+00 60 50 13
-3.484190e-01 -9.705543e-02 -1.932214e+00 214 163 62
-3.189189e-01 -9.118972e-02 -1.944894e+00 228 224 179
-1.918467e-01 -4.931941e-02 -1.939257e+00 28 21 11
-2.561236e-01 3.101890e-02 -1.893963e+00 121 114 89
-2.561236e-01 3.101890e-02 -1.893963e+00 121 114 89
4.181813e-01 8.172938e-02 -1.994053e+00 9 36 84
-2.621921e-01 8.211894e-02 -1.884975e+00 106 79 34
3.360378e-01 1.404213e-01 -1.947591e+00 210 237 161
3.399699e-01 1.446045e-01 -1.952929e+00 241 247 219
3.399699e-01 1.446045e-01 -1.952929e+00 241 247 219
3.243832e-01 1.521571e-01 -1.955745e+00 245 249 216
3.019921e-01 1.615621e-01 -1.957804e+00 97 157 82
3.390459e-01 1.666056e-01 -1.974850e+00 112 185 86
3.239527e-01 1.733608e-01 -1.976802e+00 132 204 98
3.084615e-01 1.790680e-01 -1.977234e+00 143 211 97
3.310776e-01 1.804011e-01 -1.985775e+00 174 206 146
3.381547e-01 1.912254e-01 -1.999842e+00 80 106 71
2.863013e-01 2.024187e-01 -1.995812e+00 234 194 171
2.800109e-01 2.028549e-01 -1.992168e+00 170 186 186
3.155752e-01 2.069806e-01 -2.007361e+00 82 103 70
-3.585985e-01 2.261514e-01 -1.834760e+00 253 251 247
-4.233564e-01 2.170496e-01 -1.799388e+00 225 222 201
-3.736438e-01 2.398506e-01 -1.840140e+00 101 70 67
3.492991e-01 2.651915e-01 -2.070233e+00 56 57 49
1.680596e-01 2.731386e-01 -2.009337e+00 56 62 46
-1.173016e-02 2.721139e-01 -1.958085e+00 49 49 37
1.383047e-01 2.771613e-01 -1.998908e+00 31 33 23
-3.705987e-01 2.510207e-01 -1.838619e+00 184 179 173
-3.723332e-01 2.532843e-01 -1.832220e+00 162 88 148
-3.704166e-01 2.551153e-01 -1.836933e+00 170 157 160
6.855773e-02 3.083221e-01 -2.030289e+00 45 42 29
4.506824e-02 3.069294e-01 -1.992722e+00 103 103 93
-3.396122e-01 2.797694e-01 -1.857610e+00 246 229 194
2.051679e-01 3.430058e-01 -2.019176e+00 32 35 24
-3.301808e-01 3.192599e-01 -1.852544e+00 220 182 160
-3.301808e-01 3.192599e-01 -1.852544e+00 220 182 160
2.411330e-01 3.469807e-01 -2.022539e+00 23 24 18
-2.515235e-01 3.691762e-01 -1.989314e+00 239 238 216
2.677043e-01 -2.201477e-01 -2.049530e+00 244 234 202
-3.325620e-01 -8.258112e-02 -1.944914e+00 212 167 77
-1.891565e-01 -5.516988e-02 -1.942593e+00 111 100 71
-2.562935e-01 -2.338036e-02 -1.921751e+00 37 24 6
4.186563e-01 8.418586e-02 -1.991170e+00 124 131 143
3.430483e-01 1.389379e-01 -1.948266e+00 223 237 168
3.376916e-01 1.426915e-01 -1.950042e+00 125 171 144
2.814697e-01 1.506810e-01 -1.938657e+00 161 214 113
3.064907e-01 1.531740e-01 -1.950615e+00 68 119 49
3.258041e-01 1.536746e-01 -1.957444e+00 91 151 78
2.913218e-01 1.549750e-01 -1.947004e+00 95 150 65
3.338296e-01 1.607239e-01 -1.968152e+00 143 215 111
3.078224e-01 1.648873e-01 -1.961265e+00 76 147 45
3.165133e-01 1.672409e-01 -1.969029e+00 117 191 90
2.569455e-01 1.695597e-01 -1.950591e+00 194 204 164
2.575640e-01 1.734456e-01 -1.954467e+00 173 193 144
2.564430e-01 1.784715e-01 -1.956736e+00 12 20 7
2.770840e-01 1.809339e-01 -1.968195e+00 82 127 56
3.033650e-01 1.811445e-01 -1.977801e+00 134 195 100
3.179789e-01 1.812261e-01 -1.983205e+00 232 240 193
3.148612e-01 1.835000e-01 -1.983686e+00 241 245 212
3.295151e-01 1.951802e-01 -2.000373e+00 83 129 70
2.832104e-01 2.027564e-01 -1.995737e+00 187 105 76
2.951974e-01 2.023657e-01 -1.997882e+00 137 128 129
2.951974e-01 2.023657e-01 -1.997882e+00 137 128 129
-3.320710e-01 1.952896e-01 -1.811517e+00 135 131 152
1.034422e-01 2.663156e-01 -1.985941e+00 146 146 134
3.601474e-02 2.779064e-01 -2.017905e+00 106 107 93
9.851180e-02 2.747304e-01 -1.990698e+00 47 49 39
-3.712111e-01 2.479420e-01 -1.837912e+00 240 236 237
-3.755484e-01 2.495369e-01 -1.831839e+00 167 93 148
1.576050e-01 2.797231e-01 -2.007136e+00 177 181 168
-3.753597e-01 2.520019e-01 -1.830150e+00 172 83 146
-3.752245e-01 2.540209e-01 -1.828943e+00 167 80 147
-3.752728e-01 2.561164e-01 -1.827691e+00 165 76 141
-3.803732e-01 2.612968e-01 -1.820316e+00 221 199 181
-1.457783e-01 2.924999e-01 -1.942293e+00 61 62 87
-3.763540e-01 2.704689e-01 -1.821555e+00 172 77 142
-2.391670e-01 3.225997e-01 -1.970504e+00 160 138 116
-3.408204e-01 3.014783e-01 -1.849550e+00 244 228 190
-2.172537e-01 3.415611e-01 -1.992735e+00 209 180 103
-3.318397e-01 3.090606e-01 -1.854537e+00 249 175 149
-3.352787e-01 3.383494e-01 -1.955241e+00 248 250 239
-3.422285e-01 3.200789e-01 -1.846328e+00 255 255 252
-2.514308e-01 3.661654e-01 -1.986470e+00 71 70 72
-6.110554e-02 -2.983813e-01 -1.883798e+00 204 165 82
3.244371e-01 -2.866794e-01 -2.017733e+00 119 71 2
2.702334e-01 -2.691410e-01 -2.018113e+00 154 102 4
-3.218763e-01 -1.117774e-01 -1.937485e+00 143 113 34
-3.117982e-01 -1.079054e-01 -1.945712e+00 181 156 88
-4.435428e-01 -9.992721e-02 -1.883597e+00 175 127 16
-3.896661e-01 -8.758483e-02 -1.922676e+00 221 178 41
-3.896661e-01 -8.758483e-02 -1.922676e+00 221 178 41
-1.881081e-01 -8.068140e-02 -1.955092e+00 87 77 52
-1.881081e-01 -8.068140e-02 -1.955092e+00 87 77 52
-1.891531e-01 -4.883076e-02 -1.939561e+00 107 101 82
-1.891531e-01 -4.883076e-02 -1.939561e+00 107 101 82
-1.923647e-01 -2.562271e-02 -1.926448e+00 101 89 63
-2.080980e-01 2.162981e-02 -1.901485e+00 131 117 87
-2.080980e-01 2.162981e-02 -1.901485e+00 131 117 87
3.463655e-01 1.359388e-01 -1.949428e+00 244 238 209
3.237023e-01 1.496373e-01 -1.952953e+00 97 153 101
3.027655e-01 1.498373e-01 -1.945309e+00 146 214 111
3.084512e-01 1.533242e-01 -1.951849e+00 139 205 113
3.362336e-01 1.561291e-01 -1.963741e+00 195 229 153
2.875938e-01 1.569980e-01 -1.942780e+00 124 90 38
2.950714e-01 1.680788e-01 -1.962327e+00 221 120 64
3.141925e-01 1.684676e-01 -1.969479e+00 71 145 49
3.232889e-01 1.707105e-01 -1.974141e+00 78 136 65
3.039413e-01 1.781707e-01 -1.973811e+00 60 106 39
2.780418e-01 1.836354e-01 -1.973679e+00 128 188 102
3.188706e-01 2.041116e-01 -2.006876e+00 111 159 71
-4.154327e-01 2.332259e-01 -1.821106e+00 120 124 154
-3.811294e-01 2.383144e-01 -1.835657e+00 244 212 161
-3.693705e-01 2.449134e-01 -1.848031e+00 157 133 131
-3.714772e-01 2.517882e-01 -1.835678e+00 213 198 205
2.034950e-01 2.832253e-01 -2.022593e+00 167 166 152
-3.712515e-01 2.592291e-01 -1.831173e+00 251 232 246
-3.685775e-01 2.614166e-01 -1.834075e+00 254 238 233
-3.308528e-01 2.717882e-01 -1.870473e+00 246 233 207
-3.686682e-01 2.633306e-01 -1.834374e+00 165 96 128
-1.561224e-01 2.930730e-01 -1.948900e+00 182 184 196
-3.344286e-01 2.765365e-01 -1.870762e+00 231 125 105
-3.344286e-01 2.765365e-01 -1.870762e+00 231 125 105
-3.489120e-01 2.882655e-01 -1.857641e+00 194 137 131
-2.149021e-01 3.297777e-01 -1.980129e+00 255 252 242
-2.421379e-01 3.302695e-01 -1.974115e+00 148 126 78
-3.303114e-01 3.031448e-01 -1.863910e+00 243 164 144
-1.770933e-01 3.346161e-01 -1.978928e+00 214 212 211
-2.215671e-01 3.380551e-01 -1.987249e+00 252 249 237
-1.025677e-01 3.434460e-01 -2.010164e+00 183 179 184
-1.025677e-01 3.434460e-01 -2.010164e+00 183 179 184
-3.457958e-01 3.227061e-01 -1.905963e+00 197 157 44
-3.737493e-01 2.991223e-01 -1.812255e+00 223 170 134
-3.807846e-01 2.968190e-01 -1.805469e+00 255 245 219
-3.807846e-01 2.968190e-01 -1.805469e+00 255 245 219
-3.857294e-01 2.992211e-01 -1.803084e+00 238 209 157
-1.057065e-01 3.605975e-01 -2.035380e+00 218 218 211
-1.057065e-01 3.605975e-01 -2.035380e+00 218 218 211
2.062902e-01 3.405186e-01 -2.018728e+00 162 156 142
2.058648e-01 3.409433e-01 -2.021653e+00 162 156 142
1.907671e-01 3.417814e-01 -2.015261e+00 33 35 15
-3.710404e-01 3.063308e-01 -1.810738e+00 245 198 161
8.968647e-02 3.517751e-01 -1.991706e+00 209 212 197
7.642326e-02 3.532828e-01 -1.991346e+00 234 237 205
-3.202787e-02 -3.729649e-01 -1.854917e+00 188 150 66
-1.011150e-01 -3.346148e-01 -1.863852e+00 186 146 46
-5.194769e-02 -3.222733e-01 -1.889251e+00 107 86 31
-2.643437e-01 -2.794949e-01 -1.844323e+00 168 131 54
-1.750057e-01 -1.115360e-01 -2.002473e+00 87 85 70
-3.156646e-01 -1.072717e-01 -1.942172e+00 148 123 68
-3.427518e-01 -1.058129e-01 -1.931008e+00 195 133 9
-3.427518e-01 -1.058129e-01 -1.931008e+00 195 133 9
-3.101282e-01 -1.047965e-01 -1.948017e+00 198 156 49
-3.655971e-01 -9.699845e-02 -1.928723e+00 204 152 16
2.280708e-01 -9.674449e-02 -2.124929e+00 104 61 2
-2.825384e-01 -9.572744e-02 -1.953386e+00 166 127 44
-2.301032e-01 -3.427069e-02 -1.929249e+00 113 106 78
-2.468107e-01 -3.045859e-02 -1.924953e+00 106 99 71
-2.267443e-01 1.025586e-02 -1.917331e+00 78 70 34
-2.353068e-01 1.338930e-02 -1.904152e+00 75 69 41
-4.381242e-01 1.750158e-02 -1.964064e+00 191 139 20
-3.307407e-01 3.953231e-02 -1.941241e+00 208 204 192
4.234491e-01 5.880466e-02 -1.987641e+00 117 118 104
4.126880e-01 8.571304e-02 -1.991540e+00 124 129 138
4.060722e-01 8.693777e-02 -1.991474e+00 115 123 132
4.060722e-01 8.693777e-02 -1.991474e+00 115 123 132
3.238884e-01 1.462793e-01 -1.949390e+00 128 175 132
3.044764e-01 1.491378e-01 -1.945623e+00 84 153 56
2.966029e-01 1.506323e-01 -1.944272e+00 84 154 58
3.201841e-01 1.539322e-01 -1.956026e+00 206 191 109
2.622469e-01 1.551360e-01 -1.937294e+00 69 109 59
2.439064e-01 1.579169e-01 -1.933773e+00 112 159 111
2.769950e-01 1.655899e-01 -1.949606e+00 253 185 120
2.590129e-01 1.675749e-01 -1.945442e+00 79 104 60
2.567616e-01 1.749686e-01 -1.952773e+00 51 78 33
2.783195e-01 1.814803e-01 -1.970196e+00 94 153 66
2.734578e-01 2.076531e-01 -1.997089e+00 85 102 116
2.732379e-01 2.091675e-01 -1.992942e+00 126 155 165
1.913645e-01 2.667896e-01 -2.010119e+00 49 50 45
-3.797230e-01 2.458920e-01 -1.830654e+00 210 144 111
-3.797230e-01 2.458920e-01 -1.830654e+00 210 144 111
1.970717e-01 2.824492e-01 -2.022870e+00 69 68 54
1.998620e-01 2.852348e-01 -2.022906e+00 93 92 82
1.948984e-01 2.854441e-01 -2.021860e+00 96 93 79
-3.685613e-01 2.585453e-01 -1.835462e+00 219 198 187
1.343565e-02 2.898276e-01 -1.976868e+00 50 52 49
-3.781582e-01 2.594831e-01 -1.824102e+00 195 140 96
-3.781582e-01 2.594831e-01 -1.824102e+00 195 140 96
-3.781582e-01 2.594831e-01 -1.824102e+00 195 140 96
-3.677254e-01 2.652159e-01 -1.834559e+00 236 177 175
-3.331592e-01 2.761454e-01 -1.871865e+00 249 189 161
-3.325539e-01 2.795215e-01 -1.876719e+00 230 120 90
-3.308527e-01 2.771732e-01 -1.867299e+00 255 203 175
-1.809580e-01 3.101899e-01 -1.948695e+00 210 208 205
-1.809580e-01 3.101899e-01 -1.948695e+00 210 208 205
2.793600e-01 3.266036e-01 -2.084553e+00 129 124 96
-2.396083e-01 3.271162e-01 -1.970737e+00 140 115 46
-2.354363e-01 3.330623e-01 -1.978502e+00 252 226 123
-3.322713e-01 3.026584e-01 -1.857293e+00 255 215 193
-3.773312e-01 2.956009e-01 -1.812437e+00 214 168 142
-2.940540e-01 3.612516e-01 -1.994772e+00 159 158 139
8.632492e-02 3.521068e-01 -1.990731e+00 223 223 212
8.062905e-02 3.528353e-01 -1.989934e+00 62 69 61
8.062905e-02 3.528353e-01 -1.989934e+00 62 69 61
8.702279e-02 3.545068e-01 -1.988505e+00 101 102 84
8.205674e-02 3.550333e-01 -1.988375e+00 99 101 90
-8.104976e-02 -1.461923e-01 -1.955104e+00 46 44 31
-3.421376e-01 -9.727998e-02 -1.932381e+00 245 246 227
-4.797798e-01 -9.893768e-03 -1.934186e+00 228 188 72
-3.208234e-01 -1.053897e-01 -1.939102e+00 231 228 183
-4.329322e-01 -1.068097e-01 -1.883880e+00 235 201 93
-5.822485e-02 -2.918102e-01 -1.850370e+00 54 49 25
-3.195366e-01 -1.060780e-01 -1.933963e+00 153 144 104
-3.380062e-01 -9.642423e-02 -1.937483e+00 197 146 29
-3.108730e-01 -1.098226e-01 -1.950004e+00 188 164 85
-3.178584e-01 -1.038659e-01 -1.944104e+00 133 123 82
3.202249e-01 2.810673e-02 -6.648536e-01 0 255 0
3.087760e-01 2.674105e-02 -7.135061e-01 255 255 0
6.096102e-01 5.117834e-02 -7.738177e-01 255 0 0
5.853529e-01 4.836613e-02 -8.174488e-01 255 255 0
3.134031e-02 1.107370e-01 -6.826633e-01 0 255 0
3.249680e-02 1.071923e-01 -7.325240e-01 255 255 0
7.404642e-01 1.257393e-01 -1.000781e+00 255 0 0
7.074101e-01 1.185512e-01 -1.037602e+00 255 255 0
