ply
format ascii 1.0
element face 0
property list uchar int vertex_indices
element vertex 370
property float x
property float y
property float z
property uchar diffuse_red
property uchar diffuse_green
property uchar diffuse_blue
end_header
-9.396547e-02 -2.722410e-01 -1.902866e+00 27 29 7
-3.306963e-01 2.621139e-01 -1.892019e+00 169 102 81
2.051881e-01 -1.024884e-01 -2.035982e+00 85 50 0
2.714641e-01 -1.990721e-01 -2.026389e+00 239 236 225
-1.715187e-01 -1.079543e-01 -1.938944e+00 230 181 54
-2.964350e-01 -7.882509e-02 -1.912515e+00 246 242 227
3.027153e-01 -2.039485e-01 -2.026743e+00 199 139 29
-2.882751e-01 -8.306529e-02 -1.915877e+00 136 102 38
-2.217214e-01 -8.977762e-02 -1.931124e+00 222 172 49
2.271068e-01 3.029612e-01 -2.051459e+00 195 189 164
2.327615e-01 3.156076e-01 -2.050971e+00 188 182 148
-5.709286e-02 3.405238e-01 -1.954091e+00 61 63 50
2.558528e-01 -2.646900e-01 -2.002131e+00 169 111 13
2.370874e-01 3.031983e-01 -2.052912e+00 192 185 167
3.368258e-01 3.152462e-01 -2.038442e+00 210 205 175
-2.505435e-01 8.802883e-02 -1.895931e+00 57 51 39
-3.580046e-01 1.952812e-01 -1.852199e+00 85 56 74
1.281636e-02 2.787847e-01 -1.972982e+00 67 67 59
2.348927e-01 3.079689e-01 -2.050295e+00 34 38 24
-2.945763e-01 -8.315046e-02 -1.912674e+00 249 246 232
-2.906442e-01 -7.644781e-02 -1.915747e+00 241 241 223
-2.906442e-01 -7.644781e-02 -1.915747e+00 241 241 223
-2.793793e-01 -7.564673e-02 -1.919634e+00 36 38 8
-1.768405e-01 -9.068974e-02 -1.937264e+00 61 48 32
-1.832632e-01 -8.360518e-02 -1.934393e+00 125 86 57
-1.832543e-01 -6.270262e-02 -1.930319e+00 53 42 22
-1.780743e-01 -3.738754e-02 -1.924636e+00 98 88 62
-2.530468e-01 9.216906e-02 -1.895041e+00 203 201 191
-3.115411e-01 1.192452e-01 -1.904238e+00 30 27 22
-3.281613e-01 2.657524e-01 -1.892184e+00 175 83 75
-3.352023e-01 2.729985e-01 -1.886280e+00 248 111 70
3.140216e-02 2.835992e-01 -1.976316e+00 35 38 27
-1.790705e-01 -3.032161e-02 -1.922728e+00 100 84 55
-3.480562e-01 2.836373e-01 -1.880237e+00 244 220 197
-3.495895e-01 2.902448e-01 -1.878820e+00 247 222 191
8.126283e-02 3.152616e-01 -1.999828e+00 49 53 39
7.155197e-02 3.377611e-01 -1.982189e+00 180 175 147
-3.216825e-01 -9.601212e-02 -1.904038e+00 233 178 60
-2.872003e-01 -8.253483e-02 -1.915652e+00 145 107 46
-2.872003e-01 -8.253483e-02 -1.915652e+00 145 107 46
-3.086994e-01 -7.650176e-02 -1.911023e+00 198 151 65
-2.808752e-01 -7.313949e-02 -1.919555e+00 207 198 157
-2.521706e-01 -6.827301e-02 -1.922803e+00 224 204 136
-2.525715e-01 8.913549e-02 -1.894787e+00 58 58 46
-3.075354e-01 1.201490e-01 -1.906091e+00 136 130 103
3.486163e-02 2.842826e-01 -1.976772e+00 102 104 90
-2.770972e-01 -7.281891e-02 -1.922412e+00 175 145 86
-3.607845e-01 2.234280e-01 -1.867987e+00 238 244 251
-3.499439e-01 2.278383e-01 -1.871955e+00 180 201 216
-3.280450e-01 2.726160e-01 -1.890760e+00 170 88 84
-3.489166e-01 2.758996e-01 -1.881374e+00 245 219 196
-3.405861e-01 2.830685e-01 -1.882730e+00 255 174 149
-3.405861e-01 2.830685e-01 -1.882730e+00 255 174 149
-3.503547e-01 2.951307e-01 -1.877281e+00 252 221 190
-1.959788e-01 3.112772e-01 -1.951466e+00 252 249 237
-3.506397e-01 3.145908e-01 -1.876546e+00 255 237 214
2.060747e-01 3.338179e-01 -2.011131e+00 185 169 103
6.642050e-02 3.390950e-01 -1.980892e+00 234 237 205
2.079863e-01 3.384264e-01 -2.010544e+00 103 105 89
-2.813829e-01 8.120401e-02 -1.885765e+00 227 231 219
-3.474480e-01 2.746349e-01 -1.881927e+00 175 99 91
-3.479238e-01 2.774242e-01 -1.881253e+00 179 98 78
-3.479238e-01 2.774242e-01 -1.881253e+00 179 98 78
-3.494938e-01 2.851676e-01 -1.879773e+00 201 101 93
7.185828e-02 3.359468e-01 -1.982537e+00 199 189 163
6.613207e-02 3.363665e-01 -1.981100e+00 196 188 169
7.694290e-02 3.376261e-01 -1.983213e+00 46 48 36
7.694290e-02 3.376261e-01 -1.983213e+00 46 48 36
7.873846e-02 3.386994e-01 -1.983383e+00 209 212 197
7.391708e-02 3.399121e-01 -1.982139e+00 54 56 51
1.364480e-01 2.657975e-01 -1.994822e+00 48 50 38
5.649571e-02 2.445714e-01 -1.968286e+00 42 44 28
6.803338e-02 3.360114e-01 -1.981045e+00 201 196 168
8.013587e-02 3.356355e-01 -1.984113e+00 203 197 178
8.013587e-02 3.356355e-01 -1.984113e+00 203 197 178
-9.024203e-02 -2.883681e-01 -1.905124e+00 119 118 98
-9.049277e-02 -2.886147e-01 -1.905526e+00 116 115 96
3.020538e-01 2.578700e-01 -2.035982e+00 87 88 74
1.972643e-01 -1.609728e-01 -2.013210e+00 177 127 28
2.101979e-01 -2.380132e-01 -2.000819e+00 206 155 47
2.491405e-01 -1.777791e-01 -2.024753e+00 174 118 21
2.741274e-01 1.865934e-01 -1.992540e+00 95 125 81
-2.850605e-01 -6.633294e-02 -1.916343e+00 238 236 195
-9.215317e-02 -2.854488e-01 -1.900973e+00 119 118 100
-4.410296e-01 2.232799e-01 -1.848672e+00 67 51 34
-1.027866e-01 -2.755473e-01 -1.900496e+00 71 66 45
2.838682e-01 -2.223539e-01 -2.017762e+00 204 150 38
-2.962503e-01 1.125184e-01 -1.907472e+00 187 163 112
2.728811e-01 2.027824e-01 -2.001982e+00 192 211 218
-4.228290e-01 2.445271e-01 -1.862855e+00 57 75 153
-2.596164e-01 2.938855e-01 -1.929538e+00 48 46 38
4.472070e-02 -3.041558e-01 -1.938213e+00 225 182 67
2.193098e-01 -1.988749e-01 -2.003721e+00 37 41 26
1.792198e-01 2.715776e-01 -2.007354e+00 34 35 24
-3.440470e-01 2.579422e-01 -1.887274e+00 238 104 65
-2.520737e-01 2.927229e-01 -1.930086e+00 249 248 246
-1.034240e-01 -2.685105e-01 -1.900613e+00 228 185 73
-1.506314e-01 -9.040276e-02 -1.949873e+00 147 100 21
-2.635678e-01 -4.783411e-02 -1.919190e+00 213 161 49
-2.587150e-01 6.443088e-02 -1.892255e+00 64 46 24
1.898014e-01 2.401148e-01 -1.997870e+00 60 60 50
-3.594847e-01 2.262584e-01 -1.865739e+00 103 144 179
1.714954e-01 2.620231e-01 -1.999659e+00 35 35 23
1.265787e-01 2.658480e-01 -1.992504e+00 50 51 45
-3.833911e-01 2.585004e-01 -1.865174e+00 209 207 198
2.652446e-02 2.815668e-01 -1.974386e+00 166 164 151
-1.970573e-02 2.897414e-01 -1.965083e+00 113 114 97
-5.589630e-02 3.053715e-01 -1.981105e+00 188 184 161
-9.530675e-02 3.181133e-01 -1.971095e+00 211 204 188
-2.219415e-01 3.228500e-01 -1.951674e+00 63 57 53
-9.796460e-02 -3.053968e-01 -1.901205e+00 194 148 51
-9.729097e-02 -2.627925e-01 -1.901513e+00 215 209 197
-2.231872e-01 -8.317530e-02 -1.928855e+00 87 73 39
-4.302987e-01 9.551449e-03 -1.904237e+00 222 179 51
-2.507479e-01 5.432765e-02 -1.892001e+00 41 35 23
2.221879e-01 1.554428e-01 -1.965679e+00 87 115 80
2.392782e-01 1.582723e-01 -1.970482e+00 155 207 107
3.201757e-01 1.607358e-01 -1.990249e+00 125 183 99
2.919250e-01 1.854588e-01 -1.996828e+00 217 214 173
2.530199e-01 2.027768e-01 -1.998259e+00 80 84 81
1.682995e-01 2.405036e-01 -1.992461e+00 42 42 30
-3.702757e-01 2.252209e-01 -1.864666e+00 254 255 253
-3.460681e-01 2.315712e-01 -1.872962e+00 253 253 254
1.457332e-01 2.651039e-01 -1.996271e+00 32 34 25
8.827737e-02 2.653488e-01 -1.982125e+00 32 33 25
2.919116e-02 2.766245e-01 -1.974377e+00 41 43 30
2.350948e-02 2.778040e-01 -1.972744e+00 29 32 25
-3.467838e-01 2.884082e-01 -1.880717e+00 222 74 31
-4.201795e-01 2.899804e-01 -1.850538e+00 103 104 106
-3.391377e-01 2.977781e-01 -1.881472e+00 245 201 181
-4.169467e-01 2.934784e-01 -1.850100e+00 229 230 229
-2.615803e-01 3.392747e-01 -1.951897e+00 113 114 98
2.690228e-01 -2.292026e-01 -2.016960e+00 214 166 62
-2.900217e-01 -7.334868e-02 -1.916785e+00 199 143 49
-1.825551e-01 -6.617271e-02 -1.931296e+00 70 56 30
-4.054646e-01 1.088146e-02 -1.911039e+00 202 144 23
-2.547372e-01 9.961675e-02 -1.893539e+00 16 16 14
-3.141234e-01 1.108864e-01 -1.901846e+00 147 124 74
2.961277e-01 1.537496e-01 -1.981056e+00 87 156 77
2.591819e-01 1.530027e-01 -1.972060e+00 140 205 103
2.667476e-01 1.534632e-01 -1.973804e+00 146 214 102
2.208371e-01 1.742072e-01 -1.974270e+00 76 112 67
3.113292e-01 1.855551e-01 -2.001805e+00 88 120 70
2.874683e-01 1.847055e-01 -1.995870e+00 103 112 74
3.202015e-01 1.926417e-01 -2.007501e+00 190 197 164
2.221504e-01 1.934465e-01 -1.976902e+00 101 101 93
-4.514395e-01 2.247724e-01 -1.844066e+00 84 62 60
1.763202e-01 2.604787e-01 -2.000173e+00 93 94 84
8.441810e-02 2.584559e-01 -1.979855e+00 86 98 84
1.582736e-01 2.640528e-01 -1.996087e+00 34 37 28
-1.915508e-02 2.722765e-01 -1.960831e+00 29 31 23
-3.787112e-01 2.607237e-01 -1.868819e+00 172 97 135
-1.605104e-02 2.785204e-01 -1.964681e+00 28 29 23
6.686441e-02 2.854443e-01 -1.997189e+00 223 222 202
-3.407600e-01 2.695707e-01 -1.885220e+00 229 75 47
-4.026304e-01 3.028116e-01 -1.854387e+00 253 252 249
-4.026304e-01 3.028116e-01 -1.854387e+00 253 252 249
-9.618869e-02 3.218154e-01 -1.972176e+00 213 208 202
-3.469229e-01 3.134313e-01 -1.877157e+00 220 65 36
-5.136577e-02 3.473563e-01 -1.954523e+00 31 31 21
1.210086e-01 -3.409670e-01 -1.936801e+00 60 50 13
-3.141502e-01 -7.246210e-02 -1.910532e+00 214 163 62
-2.844734e-01 -6.710479e-02 -1.917772e+00 228 224 179
-1.800004e-01 -3.334199e-02 -1.923572e+00 28 21 11
-2.482428e-01 3.746877e-02 -1.898784e+00 121 114 89
-2.482428e-01 3.746877e-02 -1.898784e+00 121 114 89
4.096665e-01 8.555978e-02 -2.010337e+00 9 36 84
-2.570098e-01 8.357882e-02 -1.894652e+00 106 79 34
3.142762e-01 1.440490e-01 -1.979506e+00 210 237 161
3.193710e-01 1.482853e-01 -1.982802e+00 241 247 219
3.193710e-01 1.482853e-01 -1.982802e+00 241 247 219
3.024060e-01 1.550394e-01 -1.983033e+00 245 249 216
2.783361e-01 1.632785e-01 -1.982196e+00 97 157 82
3.211654e-01 1.695967e-01 -1.994843e+00 112 185 86
3.047913e-01 1.754362e-01 -1.994533e+00 132 204 98
2.880419e-01 1.803397e-01 -1.993891e+00 143 211 97
3.138410e-01 1.825127e-01 -2.000109e+00 174 206 146
3.234488e-01 1.931131e-01 -2.008424e+00 80 106 71
2.672314e-01 2.008844e-01 -1.999718e+00 234 194 171
2.601588e-01 2.013840e-01 -1.998542e+00 170 186 186
3.000216e-01 2.069567e-01 -2.010258e+00 82 103 70
-3.690950e-01 2.248208e-01 -1.865880e+00 253 251 247
-4.485745e-01 2.223026e-01 -1.843944e+00 225 222 201
-3.817845e-01 2.380853e-01 -1.868461e+00 101 70 67
3.458825e-01 2.639918e-01 -2.047829e+00 56 57 49
1.528539e-01 2.622712e-01 -1.996730e+00 56 62 46
-2.183559e-02 2.570267e-01 -1.954085e+00 49 49 37
1.230210e-01 2.653478e-01 -1.988699e+00 31 33 23
-3.804685e-01 2.494002e-01 -1.868101e+00 184 179 173
-3.853243e-01 2.526824e-01 -1.864716e+00 162 88 148
-3.813727e-01 2.537570e-01 -1.867250e+00 170 157 160
6.471909e-02 2.877074e-01 -1.996282e+00 45 42 29
3.658668e-02 2.897679e-01 -1.976966e+00 103 103 93
-3.456650e-01 2.755226e-01 -1.882140e+00 246 229 194
1.948436e-01 3.363709e-01 -2.007938e+00 32 35 24
-3.416692e-01 3.158999e-01 -1.879410e+00 220 182 160
-3.416692e-01 3.158999e-01 -1.879410e+00 220 182 160
2.325093e-01 3.440892e-01 -2.015147e+00 23 24 18
-2.222788e-01 3.409302e-01 -1.951618e+00 239 238 216
2.446743e-01 -1.989041e-01 -2.016971e+00 244 234 202
-2.957695e-01 -5.947900e-02 -1.917149e+00 212 167 77
-1.768471e-01 -3.834412e-02 -1.925216e+00 111 100 71
-2.390984e-01 -1.022212e-02 -1.911344e+00 37 24 6
4.103166e-01 8.816153e-02 -2.008889e+00 124 131 143
3.222376e-01 1.428488e-01 -1.980455e+00 223 237 168
3.164635e-01 1.463457e-01 -1.981015e+00 125 171 144
2.537163e-01 1.522637e-01 -1.970057e+00 161 214 113
2.821855e-01 1.554004e-01 -1.978683e+00 68 119 49
3.042166e-01 1.565771e-01 -1.984099e+00 91 151 78
2.653859e-01 1.566440e-01 -1.975411e+00 95 150 65
3.144402e-01 1.636452e-01 -1.990664e+00 143 215 111
2.851350e-01 1.670039e-01 -1.986108e+00 76 147 45
2.955639e-01 1.692188e-01 -1.989587e+00 117 191 90
2.298345e-01 1.693745e-01 -1.974277e+00 194 204 164
2.310964e-01 1.730663e-01 -1.976403e+00 173 193 144
2.303906e-01 1.779185e-01 -1.978366e+00 12 20 7
2.535118e-01 1.808079e-01 -1.985539e+00 82 127 56
2.826824e-01 1.819891e-01 -1.993149e+00 134 195 100
2.991450e-01 1.826524e-01 -1.997439e+00 232 240 193
2.958918e-01 1.847326e-01 -1.997428e+00 241 245 212
3.141007e-01 1.964898e-01 -2.007881e+00 83 129 70
2.639612e-01 2.009690e-01 -1.999562e+00 187 105 76
2.769188e-01 2.013740e-01 -2.001283e+00 137 128 129
2.769188e-01 2.013740e-01 -2.001283e+00 137 128 129
-3.526420e-01 1.964301e-01 -1.853916e+00 135 131 152
8.780618e-02 2.538009e-01 -1.978430e+00 146 146 134
3.276970e-02 2.578584e-01 -1.985894e+00 106 107 93
8.429312e-02 2.612907e-01 -1.980418e+00 47 49 39
-3.811406e-01 2.464294e-01 -1.867613e+00 240 236 237
-3.882415e-01 2.490342e-01 -1.864207e+00 167 93 148
1.427766e-01 2.683439e-01 -1.994802e+00 177 181 168
-3.890612e-01 2.517697e-01 -1.863371e+00 172 83 146
-3.896653e-01 2.539904e-01 -1.862766e+00 167 80 147
-3.905017e-01 2.563142e-01 -1.862187e+00 165 76 141
-3.994034e-01 2.628961e-01 -1.858059e+00 221 199 181
-1.431274e-01 2.749669e-01 -1.935400e+00 61 62 87
-3.957507e-01 2.720093e-01 -1.859232e+00 172 77 142
-2.152039e-01 2.980538e-01 -1.940493e+00 160 138 116
-3.514685e-01 2.982333e-01 -1.876714e+00 244 228 190
-1.907489e-01 3.138607e-01 -1.954342e+00 209 180 103
-3.414818e-01 3.049871e-01 -1.880043e+00 249 175 149
-3.050820e-01 3.165450e-01 -1.930191e+00 248 250 239
-3.559035e-01 3.181813e-01 -1.875591e+00 255 255 252
-2.229995e-01 3.384785e-01 -1.950255e+00 71 70 72
-8.902145e-02 -2.705857e-01 -1.906630e+00 204 165 82
3.035566e-01 -2.752116e-01 -2.009589e+00 119 71 2
2.454746e-01 -2.506692e-01 -2.003173e+00 154 102 4
-2.901921e-01 -8.530089e-02 -1.914673e+00 143 113 34
-2.785559e-01 -8.158882e-02 -1.918471e+00 181 156 88
-4.184026e-01 -7.692137e-02 -1.884022e+00 175 127 16
-3.531212e-01 -6.420646e-02 -1.904415e+00 221 178 41
-3.531212e-01 -6.420646e-02 -1.904415e+00 221 178 41
-1.726560e-01 -5.987903e-02 -1.930667e+00 87 77 52
-1.726560e-01 -5.987903e-02 -1.930667e+00 87 77 52
-1.776630e-01 -3.295396e-02 -1.923894e+00 107 101 82
-1.776630e-01 -3.295396e-02 -1.923894e+00 107 101 82
-1.840319e-01 -1.307125e-02 -1.917930e+00 101 89 63
-2.047741e-01 2.846212e-02 -1.905637e+00 131 117 87
-2.047741e-01 2.846212e-02 -1.905637e+00 131 117 87
3.259348e-01 1.398673e-01 -1.981284e+00 244 238 209
3.012842e-01 1.525762e-01 -1.981439e+00 97 153 101
2.774502e-01 1.521017e-01 -1.975487e+00 146 214 111
2.844568e-01 1.555882e-01 -1.979515e+00 139 205 113
3.165667e-01 1.593304e-01 -1.988462e+00 195 229 153
2.609301e-01 1.589433e-01 -1.975754e+00 124 90 38
2.715647e-01 1.692305e-01 -1.984014e+00 221 120 64
2.931083e-01 1.703019e-01 -1.989621e+00 71 145 49
3.036884e-01 1.728560e-01 -1.993013e+00 78 136 65
2.827417e-01 1.794529e-01 -1.991827e+00 60 106 39
2.552041e-01 1.832124e-01 -1.988471e+00 128 188 102
3.034000e-01 2.043182e-01 -2.010287e+00 111 159 71
-4.307767e-01 2.353652e-01 -1.856675e+00 120 124 154
-3.908859e-01 2.373754e-01 -1.865755e+00 244 212 161
-3.745317e-01 2.419270e-01 -1.873041e+00 157 133 131
-3.827208e-01 2.506239e-01 -1.866475e+00 213 198 205
1.897830e-01 2.737209e-01 -2.007538e+00 167 166 152
-3.852371e-01 2.588247e-01 -1.864292e+00 251 232 246
-3.814902e-01 2.605221e-01 -1.866015e+00 254 238 233
-3.314755e-01 2.651260e-01 -1.889009e+00 246 233 207
-3.816058e-01 2.624234e-01 -1.866257e+00 165 96 128
-1.501587e-01 2.744270e-01 -1.937606e+00 182 184 196
-3.343230e-01 2.693187e-01 -1.887193e+00 231 125 105
-3.343230e-01 2.693187e-01 -1.887193e+00 231 125 105
-3.543323e-01 2.834917e-01 -1.880122e+00 194 137 131
-1.922297e-01 3.044827e-01 -1.948502e+00 255 252 242
-2.173659e-01 3.055771e-01 -1.943840e+00 148 126 78
-3.354755e-01 2.972159e-01 -1.884755e+00 243 164 144
-1.605360e-01 3.100375e-01 -1.951021e+00 214 212 211
-1.959788e-01 3.112772e-01 -1.951466e+00 252 249 237
-8.863277e-02 3.160324e-01 -1.971513e+00 183 179 184
-8.863277e-02 3.160324e-01 -1.971513e+00 183 179 184
-3.332965e-01 3.098484e-01 -1.905823e+00 197 157 44
-4.005358e-01 3.035127e-01 -1.855079e+00 223 170 134
-4.106518e-01 3.025979e-01 -1.850926e+00 255 245 219
-4.106518e-01 3.025979e-01 -1.850926e+00 255 245 219
-4.170264e-01 3.057826e-01 -1.849455e+00 238 209 157
-8.519740e-02 3.286848e-01 -1.982810e+00 218 218 211
-8.519740e-02 3.286848e-01 -1.982810e+00 218 218 211
1.957260e-01 3.338050e-01 -2.008855e+00 162 156 142
1.957260e-01 3.338050e-01 -2.008855e+00 162 156 142
1.797479e-01 3.340154e-01 -2.005444e+00 33 35 15
-3.993740e-01 3.113810e-01 -1.854572e+00 245 198 161
7.873846e-02 3.386994e-01 -1.983383e+00 209 212 197
6.642050e-02 3.390950e-01 -1.980892e+00 234 237 205
-7.249067e-02 -3.544826e-01 -1.894638e+00 188 150 66
-1.316169e-01 -3.079282e-01 -1.893372e+00 186 146 46
-8.008154e-02 -2.937635e-01 -1.910103e+00 107 86 31
-2.815524e-01 -2.505073e-01 -1.871675e+00 168 131 54
-1.492155e-01 -8.390291e-02 -1.951936e+00 87 85 70
-2.830367e-01 -8.120286e-02 -1.916664e+00 148 123 68
-3.099615e-01 -8.023029e-02 -1.910187e+00 195 133 9
-3.099615e-01 -8.023029e-02 -1.910187e+00 195 133 9
-2.762004e-01 -7.886604e-02 -1.919398e+00 198 156 49
-3.301519e-01 -7.237959e-02 -1.908148e+00 204 152 16
2.130602e-01 -7.781281e-02 -2.044512e+00 104 61 2
-2.513388e-01 -7.113617e-02 -1.923623e+00 166 127 44
-2.147882e-01 -1.993447e-02 -1.916452e+00 113 106 78
-2.301299e-01 -1.646591e-02 -1.913392e+00 106 99 71
-2.155215e-01 1.873573e-02 -1.911591e+00 78 70 34
-2.270364e-01 2.153357e-02 -1.904867e+00 75 69 41
-3.772122e-01 2.822058e-02 -1.922477e+00 191 139 20
-2.950436e-01 4.568812e-02 -1.916720e+00 208 204 192
4.147980e-01 6.228343e-02 -2.006842e+00 117 118 104
4.031390e-01 8.952961e-02 -2.008576e+00 124 129 138
3.952081e-01 9.057172e-02 -2.007945e+00 115 123 132
3.952081e-01 9.057172e-02 -2.007945e+00 115 123 132
3.010273e-01 1.493386e-01 -1.979498e+00 128 175 132
2.793190e-01 1.514585e-01 -1.975790e+00 84 153 56
2.706522e-01 1.526541e-01 -1.974385e+00 84 154 58
2.978391e-01 1.566094e-01 -1.982829e+00 206 191 109
2.332786e-01 1.559185e-01 -1.967651e+00 69 109 59
2.137719e-01 1.580594e-01 -1.964179e+00 112 159 111
2.506496e-01 1.667046e-01 -1.977642e+00 253 185 120
2.312571e-01 1.678745e-01 -1.973779e+00 79 104 60
2.300715e-01 1.747426e-01 -1.977013e+00 51 78 33
2.550477e-01 1.812955e-01 -1.986688e+00 94 153 66
2.540841e-01 2.050499e-01 -1.999487e+00 85 102 116
2.534548e-01 2.072333e-01 -1.998402e+00 126 155 165
1.753585e-01 2.575742e-01 -1.999535e+00 49 50 45
-3.925147e-01 2.456515e-01 -1.863324e+00 210 144 111
-3.925147e-01 2.456515e-01 -1.863324e+00 210 144 111
1.834172e-01 2.723627e-01 -2.006850e+00 69 68 54
1.863356e-01 2.754103e-01 -2.007337e+00 93 92 82
1.813159e-01 2.753267e-01 -2.006263e+00 96 93 79
-3.805886e-01 2.573994e-01 -1.866672e+00 219 198 187
4.734467e-03 2.732060e-01 -1.965825e+00 50 52 49
-3.952801e-01 2.603800e-01 -1.860200e+00 195 140 96
-3.952801e-01 2.603800e-01 -1.860200e+00 195 140 96
-3.952801e-01 2.603800e-01 -1.860200e+00 195 140 96
-3.807796e-01 2.642859e-01 -1.866458e+00 236 177 175
-3.326827e-01 2.687441e-01 -1.887852e+00 249 189 161
-3.303359e-01 2.713550e-01 -1.890491e+00 230 120 90
-3.332137e-01 2.710745e-01 -1.887573e+00 255 203 175
-1.721387e-01 2.906984e-01 -1.936087e+00 210 208 205
-1.721387e-01 2.906984e-01 -1.936087e+00 210 208 205
2.763767e-01 3.180192e-01 -2.048287e+00 129 124 96
-2.161810e-01 3.030797e-01 -1.942401e+00 140 115 46
-2.103500e-01 3.076569e-01 -1.946392e+00 252 226 123
-3.401279e-01 2.979095e-01 -1.881201e+00 255 215 193
-4.036196e-01 2.998712e-01 -1.854963e+00 214 168 142
-2.562649e-01 3.318680e-01 -1.951012e+00 159 158 139
7.541824e-02 3.389251e-01 -1.982580e+00 223 223 212
6.995746e-02 3.393486e-01 -1.981622e+00 62 69 61
6.995746e-02 3.393486e-01 -1.981622e+00 62 69 61
7.576326e-02 3.418492e-01 -1.981743e+00 101 102 84
7.108868e-02 3.420106e-01 -1.981162e+00 99 101 90
-2.810792e-03 -2.231615e-03 -4.396382e-02 0 255 0
-2.741830e-03 -2.178877e-03 -9.396374e-02 255 255 0
9.667668e-01 9.444143e-02 -2.567427e-01 255 0 0
9.408931e-01 9.168634e-02 -2.994389e-01 255 255 0
