ply
format ascii 1.0
element face 0
property list uchar int vertex_indices
element vertex 684
property float x
property float y
property float z
property uchar diffuse_red
property uchar diffuse_green
property uchar diffuse_blue
end_header
-2.485804e-02 -2.753906e-01 -1.843398e+00 27 29 7
-3.355743e-01 2.755251e-01 -1.881108e+00 169 102 81
2.248892e-01 -1.231699e-01 -2.134749e+00 85 50 0
3.021372e-01 -2.079762e-01 -2.064378e+00 239 236 225
-1.932969e-01 -1.453832e-01 -1.983829e+00 230 181 54
-3.395981e-01 -1.131560e-01 -1.940525e+00 246 242 227
3.322006e-01 -2.055709e-01 -2.051500e+00 199 139 29
-3.337392e-01 -1.196907e-01 -1.949113e+00 136 102 38
-2.558287e-01 -1.256885e-01 -1.973292e+00 222 172 49
2.237389e-01 3.314078e-01 -2.150789e+00 195 189 164
2.297550e-01 3.428809e-01 -2.143787e+00 188 182 148
-4.376774e-02 3.563145e-01 -1.962881e+00 61 63 50
2.935925e-01 -2.599222e-01 -1.997607e+00 169 111 13
2.359307e-01 3.281191e-01 -2.140831e+00 192 185 167
3.361145e-01 3.109641e-01 -2.049015e+00 210 205 175
-2.345300e-01 8.723203e-02 -1.874035e+00 57 51 39
-2.996822e-01 1.912607e-01 -1.783982e+00 85 56 74
2.509063e-02 2.956622e-01 -1.996270e+00 67 67 59
2.326259e-01 3.339924e-01 -2.141617e+00 34 38 24
-3.384427e-01 -1.188927e-01 -1.942245e+00 249 246 232
-3.331894e-01 -1.106045e-01 -1.944162e+00 241 241 223
-3.331894e-01 -1.106045e-01 -1.944162e+00 241 241 223
-3.271250e-01 -1.111268e-01 -1.957779e+00 36 38 8
-1.964420e-01 -1.228168e-01 -1.976695e+00 61 48 32
-2.010478e-01 -1.138768e-01 -1.969005e+00 125 86 57
-1.936377e-01 -8.675714e-02 -1.954721e+00 53 42 22
-1.750190e-01 -5.383747e-02 -1.932316e+00 98 88 62
-2.372166e-01 9.235147e-02 -1.873174e+00 203 201 191
-3.443080e-01 1.231854e-01 -1.918840e+00 30 27 22
-3.317978e-01 2.792657e-01 -1.880429e+00 175 83 75
-3.287266e-01 2.833221e-01 -1.864254e+00 248 111 70
4.687032e-02 2.984889e-01 -1.994148e+00 35 38 27
-1.736340e-01 -4.495184e-02 -1.927071e+00 100 84 55
-3.343950e-01 2.918950e-01 -1.851346e+00 244 220 197
-3.329647e-01 2.976368e-01 -1.847489e+00 247 222 191
8.589879e-02 3.374486e-01 -2.046292e+00 49 53 39
8.972994e-02 3.461327e-01 -1.989447e+00 180 175 147
-3.616655e-01 -1.333403e-01 -1.922057e+00 233 178 60
-3.292931e-01 -1.180654e-01 -1.945233e+00 145 107 46
-3.292931e-01 -1.180654e-01 -1.945233e+00 145 107 46
-3.534045e-01 -1.111743e-01 -1.936574e+00 198 151 65
-3.292275e-01 -1.077961e-01 -1.957752e+00 207 198 157
-2.902826e-01 -9.915170e-02 -1.959467e+00 224 204 136
-2.327666e-01 8.846491e-02 -1.868057e+00 58 58 46
-3.424714e-01 1.245742e-01 -1.923832e+00 136 130 103
5.098596e-02 2.985026e-01 -1.993396e+00 102 104 90
-3.271347e-01 -1.084977e-01 -1.963175e+00 175 145 86
-3.315460e-01 2.254373e-01 -1.822717e+00 238 244 251
-3.236447e-01 2.309608e-01 -1.830270e+00 180 201 216
-3.287506e-01 2.854755e-01 -1.876742e+00 170 88 84
-3.391130e-01 2.850526e-01 -1.855403e+00 245 219 196
-3.290867e-01 2.921435e-01 -1.856623e+00 255 174 149
-3.290867e-01 2.921435e-01 -1.856623e+00 255 174 149
-3.310587e-01 3.016914e-01 -1.843931e+00 252 221 190
-2.435523e-01 3.526139e-01 -2.017968e+00 252 249 237
-3.256416e-01 3.195153e-01 -1.838711e+00 255 237 214
2.195939e-01 3.333314e-01 -2.014783e+00 185 169 103
8.476429e-02 3.475328e-01 -1.987571e+00 234 237 205
2.217306e-01 3.373526e-01 -2.014631e+00 103 105 89
-2.581962e-01 7.901580e-02 -1.851536e+00 227 231 219
-3.380991e-01 2.839110e-01 -1.856457e+00 175 99 91
-3.372126e-01 2.864179e-01 -1.854690e+00 179 98 78
-3.372126e-01 2.864179e-01 -1.854690e+00 179 98 78
-3.345882e-01 2.930209e-01 -1.849583e+00 201 101 93
8.984781e-02 3.446883e-01 -1.990418e+00 199 189 163
8.421789e-02 3.453823e-01 -1.989405e+00 196 188 169
9.519193e-02 3.455557e-01 -1.990197e+00 46 48 36
9.522235e-02 3.457211e-01 -1.990868e+00 46 48 36
9.714306e-02 3.465891e-01 -1.990762e+00 209 212 197
9.226224e-02 3.481493e-01 -1.989618e+00 54 56 51
1.550689e-01 2.748815e-01 -2.009621e+00 48 50 38
8.351887e-02 2.522526e-01 -1.965156e+00 42 44 28
8.599233e-02 3.449195e-01 -1.989140e+00 201 196 168
9.811846e-02 3.438121e-01 -1.991965e+00 203 197 178
9.811846e-02 3.438121e-01 -1.991965e+00 203 197 178
-2.221362e-02 -2.925728e-01 -1.848017e+00 119 118 98
-2.294467e-02 -2.932816e-01 -1.849108e+00 116 115 96
3.084276e-01 2.624914e-01 -2.062730e+00 87 88 74
2.279402e-01 -1.762220e-01 -2.059305e+00 177 127 28
2.484741e-01 -2.447014e-01 -2.012514e+00 206 155 47
2.795156e-01 -1.897539e-01 -2.070137e+00 174 118 21
2.963693e-01 1.828258e-01 -1.953240e+00 95 125 81
-3.272057e-01 -9.829906e-02 -1.946296e+00 238 236 195
-2.007719e-02 -2.860929e-01 -1.837874e+00 119 118 100
-4.031667e-01 2.211408e-01 -1.789440e+00 67 51 34
-3.292378e-02 -2.787669e-01 -1.839744e+00 71 66 45
3.162438e-01 -2.224172e-01 -2.032287e+00 204 150 38
-3.230901e-01 1.154920e-01 -1.919236e+00 187 163 112
2.924426e-01 2.003460e-01 -1.976224e+00 192 211 218
-4.064130e-01 2.481188e-01 -1.821064e+00 57 75 153
-3.009478e-01 3.261337e-01 -1.969899e+00 48 46 38
1.062728e-01 -3.018124e-01 -1.894355e+00 225 182 67
2.560538e-01 -2.039576e-01 -2.017277e+00 37 41 26
1.948431e-01 2.800274e-01 -2.027351e+00 34 35 24
-3.438651e-01 2.692350e-01 -1.869156e+00 238 104 65
-2.904514e-01 3.238689e-01 -1.969227e+00 249 248 246
-3.415036e-02 -2.721065e-01 -1.840387e+00 228 185 73
-1.785669e-01 -1.260105e-01 -2.010663e+00 147 100 21
-2.985471e-01 -7.423364e-02 -1.947825e+00 213 161 49
-2.375229e-01 6.147191e-02 -1.863043e+00 64 46 24
2.119466e-01 2.434265e-01 -1.996334e+00 60 60 50
-3.250688e-01 2.272099e-01 -1.816615e+00 103 144 179
1.909935e-01 2.678987e-01 -2.008010e+00 35 35 23
1.458991e-01 2.750503e-01 -2.006161e+00 50 51 45
-3.544782e-01 2.606860e-01 -1.819039e+00 209 207 198
4.105678e-02 2.968858e-01 -1.994236e+00 166 164 151
-8.424091e-03 3.071247e-01 -1.984981e+00 113 114 97
-7.912977e-02 3.430291e-01 -2.056008e+00 188 184 161
-1.219646e-01 3.564380e-01 -2.038954e+00 211 204 188
-2.849964e-01 3.706389e-01 -2.029298e+00 63 57 53
-2.660358e-02 -3.074793e-01 -1.839720e+00 194 148 51
-2.778686e-02 -2.656316e-01 -1.840979e+00 215 209 197
-2.536469e-01 -1.164580e-01 -1.965984e+00 87 73 39
-5.420884e-01 -1.501064e-02 -1.952009e+00 222 179 51
-2.256932e-01 5.079488e-02 -1.860017e+00 41 35 23
2.587601e-01 1.522760e-01 -1.903512e+00 87 115 80
2.724457e-01 1.547468e-01 -1.909955e+00 155 207 107
3.369298e-01 1.561513e-01 -1.934998e+00 125 183 99
3.108580e-01 1.818791e-01 -1.960843e+00 217 214 173
2.751643e-01 2.011777e-01 -1.974852e+00 80 84 81
1.922186e-01 2.443035e-01 -1.989572e+00 42 42 30
-3.380735e-01 2.263400e-01 -1.816198e+00 254 255 253
-3.200888e-01 2.349914e-01 -1.832122e+00 253 253 254
1.648930e-01 2.732402e-01 -2.009070e+00 32 34 25
1.093714e-01 2.750455e-01 -1.991653e+00 32 33 25
4.449454e-02 2.914846e-01 -1.993260e+00 41 43 30
3.894655e-02 2.926100e-01 -1.990616e+00 29 32 25
-3.313641e-01 2.963018e-01 -1.850363e+00 222 74 31
-3.714589e-01 2.858052e-01 -1.788000e+00 103 104 106
-3.210044e-01 3.052253e-01 -1.850044e+00 245 201 181
-3.658454e-01 2.886062e-01 -1.786291e+00 229 230 229
-3.505689e-01 3.975950e-01 -2.046719e+00 113 114 98
3.028660e-01 -2.311152e-01 -2.030716e+00 214 166 62
-3.364442e-01 -1.078760e-01 -1.949751e+00 199 143 49
-1.947042e-01 -9.101942e-02 -1.958349e+00 70 56 30
-5.190129e-01 -1.312111e-02 -1.968537e+00 202 144 23
-2.335448e-01 9.967166e-02 -1.865201e+00 16 16 14
-3.390291e-01 1.128414e-01 -1.907605e+00 147 124 74
3.188661e-01 1.495948e-01 -1.919447e+00 87 156 77
2.895764e-01 1.492694e-01 -1.908195e+00 140 205 103
2.956220e-01 1.495882e-01 -1.910227e+00 146 214 102
2.540500e-01 1.710637e-01 -1.924402e+00 76 112 67
3.268061e-01 1.814429e-01 -1.965662e+00 88 120 70
3.074298e-01 1.809559e-01 -1.957690e+00 103 112 74
3.331357e-01 1.886936e-01 -1.977622e+00 190 197 164
2.533347e-01 1.895079e-01 -1.929808e+00 101 101 93
-4.072087e-01 2.211205e-01 -1.779761e+00 84 62 60
1.958996e-01 2.659295e-01 -2.007565e+00 93 94 84
1.067685e-01 2.676971e-01 -1.986960e+00 86 98 84
1.786819e-01 2.700624e-01 -2.002970e+00 34 37 28
-2.990241e-03 2.868130e-01 -1.972592e+00 29 31 23
-3.550193e-01 2.644807e-01 -1.827201e+00 172 97 135
-3.195795e-03 2.949769e-01 -1.982782e+00 28 29 23
7.030342e-02 3.085594e-01 -2.049010e+00 223 222 202
-3.318447e-01 2.784724e-01 -1.860055e+00 229 75 47
-3.541883e-01 2.988292e-01 -1.793782e+00 253 252 249
-3.541883e-01 2.988292e-01 -1.793782e+00 253 252 249
-1.249035e-01 3.615680e-01 -2.043025e+00 213 208 202
-3.218734e-01 3.184282e-01 -1.839644e+00 220 65 36
-3.657909e-02 3.613795e-01 -1.961149e+00 31 31 21
1.879415e-01 -3.118592e-01 -1.866954e+00 60 50 13
-3.612613e-01 -1.067770e-01 -1.936777e+00 214 163 62
-3.295403e-01 -9.995137e-02 -1.950964e+00 228 224 179
-1.773656e-01 -4.873898e-02 -1.931575e+00 28 21 11
-2.343202e-01 3.185407e-02 -1.878580e+00 121 114 89
-2.343202e-01 3.185407e-02 -1.878580e+00 121 114 89
4.103940e-01 8.942021e-02 -1.964521e+00 9 36 84
-2.390982e-01 8.235838e-02 -1.869128e+00 106 79 34
3.342749e-01 1.400094e-01 -1.911378e+00 210 237 161
3.377518e-01 1.439779e-01 -1.917730e+00 241 247 219
3.377518e-01 1.439779e-01 -1.917730e+00 241 247 219
3.236645e-01 1.507537e-01 -1.922460e+00 245 249 216
3.033033e-01 1.592243e-01 -1.926883e+00 97 157 82
3.367373e-01 1.648517e-01 -1.945736e+00 112 185 86
3.229024e-01 1.710405e-01 -1.949393e+00 132 204 98
3.084243e-01 1.766476e-01 -1.953554e+00 143 211 97
3.293126e-01 1.780876e-01 -1.960680e+00 174 206 146
3.357313e-01 1.891200e-01 -1.979070e+00 80 106 71
2.875399e-01 1.990127e-01 -1.976455e+00 234 194 171
2.817017e-01 1.992930e-01 -1.973145e+00 170 186 186
3.145265e-01 2.043584e-01 -1.990902e+00 82 103 70
-3.389294e-01 2.264140e-01 -1.819099e+00 253 251 247
-4.035417e-01 2.185517e-01 -1.779334e+00 225 222 201
-3.610149e-01 2.418148e-01 -1.828021e+00 101 70 67
3.462858e-01 2.683362e-01 -2.083219e+00 56 57 49
1.725377e-01 2.695836e-01 -2.007431e+00 56 62 46
8.865959e-04 2.680848e-01 -1.954168e+00 49 49 37
1.444082e-01 2.730185e-01 -1.996176e+00 31 33 23
-3.572968e-01 2.529428e-01 -1.826342e+00 184 179 173
-3.567428e-01 2.547893e-01 -1.818421e+00 162 88 148
-3.565339e-01 2.569617e-01 -1.824297e+00 170 157 160
6.838350e-02 3.106516e-01 -2.046824e+00 45 42 29
5.113262e-02 3.048059e-01 -1.997019e+00 103 103 93
-3.325459e-01 2.835392e-01 -1.853070e+00 246 229 194
2.080132e-01 3.378566e-01 -2.016748e+00 32 35 24
-3.185595e-01 3.217477e-01 -1.844107e+00 220 182 160
-3.185595e-01 3.217477e-01 -1.844107e+00 220 182 160
2.418354e-01 3.433313e-01 -2.025148e+00 23 24 18
-2.836764e-01 3.903312e-01 -2.027452e+00 239 238 216
2.776527e-01 -2.075954e-01 -2.047256e+00 244 234 202
-3.468179e-01 -9.186431e-02 -1.952823e+00 212 167 77
-1.754711e-01 -5.479424e-02 -1.935756e+00 111 100 71
-2.443195e-01 -2.403562e-02 -1.913726e+00 37 24 6
4.106364e-01 9.165176e-02 -1.960820e+00 124 131 143
3.405517e-01 1.387724e-01 -1.911683e+00 223 237 168
3.357288e-01 1.421389e-01 -1.914305e+00 125 171 144
2.853792e-01 1.485461e-01 -1.904985e+00 161 214 113
3.075983e-01 1.513552e-01 -1.917526e+00 68 119 49
3.249165e-01 1.522023e-01 -1.924496e+00 91 151 78
2.939736e-01 1.527659e-01 -1.914354e+00 95 150 65
3.320569e-01 1.591213e-01 -1.937439e+00 143 215 111
3.080815e-01 1.630559e-01 -1.935117e+00 76 147 45
3.162560e-01 1.649908e-01 -1.939895e+00 117 191 90
2.624539e-01 1.660783e-01 -1.921753e+00 194 204 164
2.627944e-01 1.698118e-01 -1.926546e+00 173 193 144
2.612440e-01 1.748638e-01 -1.932055e+00 12 20 7
2.800674e-01 1.773919e-01 -1.942176e+00 82 127 56
3.039476e-01 1.781720e-01 -1.952317e+00 134 195 100
3.172908e-01 1.786215e-01 -1.958203e+00 232 240 193
3.143975e-01 1.807363e-01 -1.959090e+00 241 245 212
3.276844e-01 1.927942e-01 -1.980360e+00 83 129 70
2.846726e-01 1.993006e-01 -1.976450e+00 187 105 76
2.957615e-01 1.991429e-01 -1.978637e+00 137 128 129
2.957615e-01 1.991429e-01 -1.978637e+00 137 128 129
-2.954095e-01 1.927166e-01 -1.786830e+00 135 131 152
1.118840e-01 2.618827e-01 -1.981518e+00 146 146 134
3.754898e-02 2.792646e-01 -2.031169e+00 106 107 93
1.061246e-01 2.707865e-01 -1.988520e+00 47 49 39
-3.575211e-01 2.497559e-01 -1.825335e+00 240 236 237
-3.602749e-01 2.511328e-01 -1.817986e+00 167 93 148
1.623998e-01 2.760260e-01 -2.005658e+00 177 181 168
-3.594362e-01 2.534856e-01 -1.815920e+00 172 83 146
-3.588453e-01 2.554259e-01 -1.814446e+00 167 80 147
-3.585145e-01 2.574635e-01 -1.812980e+00 165 76 141
-3.618318e-01 2.624187e-01 -1.804193e+00 221 199 181
-1.376020e-01 2.925898e-01 -1.944525e+00 61 62 87
-3.581009e-01 2.716389e-01 -1.805908e+00 172 77 142
-2.526922e-01 3.320092e-01 -1.988413e+00 160 138 116
-3.289320e-01 3.038436e-01 -1.840266e+00 244 228 190
-2.407212e-01 3.570203e-01 -2.025673e+00 209 180 103
-3.206879e-01 3.115636e-01 -1.846335e+00 249 175 149
-3.738498e-01 3.588516e-01 -1.987710e+00 248 250 239
-3.306840e-01 3.229045e-01 -1.837154e+00 255 255 252
-2.821276e-01 3.864083e-01 -2.023014e+00 71 70 72
-2.303191e-02 -2.760300e-01 -1.851813e+00 204 165 82
3.362578e-01 -2.638501e-01 -2.002216e+00 119 71 2
2.831823e-01 -2.496292e-01 -2.004642e+00 154 102 4
-3.318232e-01 -1.213784e-01 -1.942928e+00 143 113 34
-3.210760e-01 -1.171587e-01 -1.951083e+00 181 156 88
-4.649141e-01 -1.117280e-01 -1.882576e+00 175 127 16
-4.108815e-01 -9.883427e-02 -1.929209e+00 221 178 41
-4.108815e-01 -9.883427e-02 -1.929209e+00 221 178 41
-1.784594e-01 -8.181528e-02 -1.952250e+00 87 77 52
-1.784594e-01 -8.181528e-02 -1.952250e+00 87 77 52
-1.744817e-01 -4.815340e-02 -1.931796e+00 107 101 82
-1.744817e-01 -4.815340e-02 -1.931796e+00 107 101 82
-1.738019e-01 -2.407025e-02 -1.915046e+00 101 89 63
-1.832887e-01 2.343235e-02 -1.884752e+00 131 117 87
-1.832887e-01 2.343235e-02 -1.884752e+00 131 117 87
3.435515e-01 1.361698e-01 -1.912803e+00 244 238 209
3.231000e-01 1.483684e-01 -1.919016e+00 97 153 101
3.043806e-01 1.481275e-01 -1.911291e+00 146 214 111
3.093445e-01 1.515501e-01 -1.918874e+00 139 205 113
3.342821e-01 1.547688e-01 -1.931640e+00 195 229 153
2.900895e-01 1.551059e-01 -1.914960e+00 124 90 38
2.968435e-01 1.653386e-01 -1.933146e+00 221 120 64
3.141232e-01 1.661230e-01 -1.940666e+00 71 145 49
3.223435e-01 1.684632e-01 -1.945979e+00 78 136 65
3.043224e-01 1.756377e-01 -1.949766e+00 60 106 39
2.807253e-01 1.802032e-01 -1.949068e+00 128 188 102
3.176374e-01 2.016279e-01 -1.989955e+00 111 159 71
-4.051183e-01 2.363234e-01 -1.807179e+00 120 124 154
-3.683001e-01 2.403621e-01 -1.822887e+00 244 212 161
-3.596948e-01 2.474655e-01 -1.838162e+00 157 133 131
-3.570758e-01 2.535061e-01 -1.822642e+00 213 198 205
2.058338e-01 2.803733e-01 -2.022994e+00 167 166 152
-3.552830e-01 2.606890e-01 -1.817213e+00 251 232 246
-3.534160e-01 2.630205e-01 -1.820795e+00 254 238 233
-3.263551e-01 2.756978e-01 -1.868177e+00 246 233 207
-3.538281e-01 2.650321e-01 -1.821303e+00 165 96 128
-1.511732e-01 2.946002e-01 -1.954309e+00 182 184 196
-3.284894e-01 2.799460e-01 -1.866003e+00 231 125 105
-3.284894e-01 2.799460e-01 -1.866003e+00 231 125 105
-3.415251e-01 2.918176e-01 -1.850861e+00 194 137 131
-2.321883e-01 3.418713e-01 -2.006260e+00 255 252 242
-2.628052e-01 3.437169e-01 -2.001036e+00 148 126 78
-3.224132e-01 3.064893e-01 -1.858077e+00 243 164 144
-1.873375e-01 3.438665e-01 -2.000358e+00 214 212 211
-2.435523e-01 3.526139e-01 -2.017968e+00 252 249 237
-1.127581e-01 3.531368e-01 -2.037302e+00 183 179 184
-1.127581e-01 3.531368e-01 -2.037302e+00 183 179 184
-3.626214e-01 3.347567e-01 -1.917728e+00 197 157 44
-3.526980e-01 2.997452e-01 -1.795086e+00 223 170 134
-3.581012e-01 2.971954e-01 -1.786883e+00 255 245 219
-3.581012e-01 2.971954e-01 -1.786883e+00 255 245 219
-3.632865e-01 2.998250e-01 -1.784271e+00 238 209 157
-1.250435e-01 3.764681e-01 -2.075824e+00 218 218 211
-1.250435e-01 3.764681e-01 -2.075824e+00 218 218 211
2.081893e-01 3.368030e-01 -2.021186e+00 162 156 142
2.085808e-01 3.360482e-01 -2.019506e+00 162 156 142
1.932566e-01 3.378976e-01 -2.017573e+00 33 35 15
-3.491861e-01 3.067011e-01 -1.793246e+00 245 198 161
9.560615e-02 3.477515e-01 -1.994089e+00 209 212 197
8.347942e-02 3.485509e-01 -1.990985e+00 234 237 205
1.228875e-02 -3.397034e-01 -1.815876e+00 188 150 66
-5.893097e-02 -3.114622e-01 -1.828918e+00 186 146 46
-1.504215e-02 -3.001244e-01 -1.858115e+00 107 86 31
-2.269891e-01 -2.707357e-01 -1.812389e+00 168 131 54
-1.802955e-01 -1.190422e-01 -2.017626e+00 87 85 70
-3.243101e-01 -1.162981e-01 -1.946560e+00 148 123 68
-3.534910e-01 -1.154211e-01 -1.934271e+00 195 133 9
-3.534910e-01 -1.154211e-01 -1.934271e+00 195 133 9
-3.236036e-01 -1.146529e-01 -1.958205e+00 198 156 49
-3.819640e-01 -1.076719e-01 -1.934194e+00 204 152 16
2.293411e-01 -9.732724e-02 -2.161454e+00 104 61 2
-2.882128e-01 -1.031592e-01 -1.958607e+00 166 127 44
-2.169720e-01 -3.448356e-02 -1.921372e+00 113 106 78
-2.345238e-01 -3.101961e-02 -1.917061e+00 106 99 71
-2.093911e-01 1.093989e-02 -1.906315e+00 78 70 34
-2.142581e-01 1.450051e-02 -1.889781e+00 75 69 41
-5.023712e-01 8.813600e-03 -2.000782e+00 191 139 20
-3.439779e-01 3.692991e-02 -1.950142e+00 208 204 192
4.152312e-01 6.878220e-02 -1.955398e+00 117 118 104
4.051712e-01 9.290815e-02 -1.961386e+00 124 129 138
3.991001e-01 9.387781e-02 -1.961429e+00 115 123 132
3.991001e-01 9.387781e-02 -1.961429e+00 115 123 132
3.233295e-01 1.452187e-01 -1.914577e+00 128 175 132
3.059195e-01 1.475217e-01 -1.911531e+00 84 153 56
2.988491e-01 1.487740e-01 -1.910546e+00 84 154 58
3.198603e-01 1.523375e-01 -1.923144e+00 206 191 109
2.680289e-01 1.524488e-01 -1.904964e+00 69 109 59
2.515377e-01 1.547970e-01 -1.902274e+00 112 159 111
2.802904e-01 1.630000e-01 -1.923029e+00 253 185 120
2.640631e-01 1.645257e-01 -1.919064e+00 79 104 60
2.617101e-01 1.715067e-01 -1.927476e+00 51 78 33
2.811256e-01 1.780120e-01 -1.944613e+00 94 153 66
2.755270e-01 2.039083e-01 -1.978521e+00 85 102 116
2.752750e-01 2.052899e-01 -1.974888e+00 126 155 165
1.953346e-01 2.629799e-01 -2.006285e+00 49 50 45
-3.647337e-01 2.475913e-01 -1.816682e+00 210 144 111
-3.647337e-01 2.475913e-01 -1.816682e+00 210 144 111
1.995271e-01 2.797708e-01 -2.023825e+00 69 68 54
2.022232e-01 2.824679e-01 -2.023803e+00 93 92 82
1.974469e-01 2.826429e-01 -2.022780e+00 96 93 79
-3.538158e-01 2.602081e-01 -1.822432e+00 219 198 187
2.224488e-02 2.869042e-01 -1.977687e+00 50 52 49
-3.607047e-01 2.607764e-01 -1.808784e+00 195 140 96
-3.607047e-01 2.607764e-01 -1.808784e+00 195 140 96
-3.607047e-01 2.607764e-01 -1.808784e+00 195 140 96
-3.528791e-01 2.669179e-01 -1.821555e+00 236 177 175
-3.274103e-01 2.795754e-01 -1.867344e+00 249 189 161
-3.290773e-01 2.836188e-01 -1.873920e+00 230 120 90
-3.254605e-01 2.810358e-01 -1.864416e+00 255 203 175
-1.798857e-01 3.137880e-01 -1.957242e+00 210 208 205
-1.798857e-01 3.137880e-01 -1.957242e+00 210 208 205
2.763347e-01 3.331522e-01 -2.111631e+00 129 124 96
-2.581391e-01 3.395297e-01 -1.995648e+00 140 115 46
-2.565985e-01 3.469012e-01 -2.006716e+00 252 226 123
-3.218937e-01 3.052947e-01 -1.849586e+00 255 215 193
-3.569935e-01 2.964922e-01 -1.795468e+00 214 168 142
-3.402649e-01 3.872462e-01 -2.041799e+00 159 158 139
9.236889e-02 3.480744e-01 -1.993070e+00 223 223 212
8.673638e-02 3.489365e-01 -1.992500e+00 62 69 61
8.673638e-02 3.489365e-01 -1.992500e+00 62 69 61
9.337747e-02 3.500882e-01 -1.990164e+00 101 102 84
8.838089e-02 3.508287e-01 -1.990425e+00 99 101 90
-7.406429e-02 -1.480571e-01 -1.971257e+00 46 44 31
-3.554868e-01 -1.072112e-01 -1.939080e+00 245 246 227
-5.434580e-01 -2.202713e-02 -1.960325e+00 228 188 72
-3.311553e-01 -1.148478e-01 -1.945286e+00 231 228 183
-4.581837e-01 -1.196908e-01 -1.887813e+00 235 201 93
-2.369735e-02 -2.698531e-01 -1.827600e+00 54 49 25
-3.303084e-01 -1.154140e-01 -1.940564e+00 153 144 104
-3.539599e-01 -1.068966e-01 -1.946530e+00 197 146 29
-3.234240e-01 -1.201516e-01 -1.958706e+00 188 164 85
-3.306365e-01 -1.138680e-01 -1.952460e+00 133 123 82
4.465195e-02 3.377558e-01 -2.045538e+00 18 20 15
4.399589e-01 8.964070e-02 -1.937772e+00 7 9 6
-7.399040e-02 -1.824191e-01 -1.967902e+00 224 175 55
5.047686e-01 -6.841270e-02 -2.147391e+00 79 64 33
-1.676259e-01 -9.169551e-02 -2.052657e+00 118 79 14
3.704919e-01 2.944137e-01 -2.049859e+00 207 197 162
3.704919e-01 2.944137e-01 -2.049859e+00 207 197 162
3.580730e-01 2.997260e-01 -2.050448e+00 37 38 25
6.872630e-02 3.257492e-01 -2.042609e+00 214 207 183
-7.056830e-02 -1.666330e-01 -1.965393e+00 64 57 31
-3.518853e-01 -1.029592e-01 -1.954023e+00 222 169 38
4.753802e-01 -3.717571e-03 -2.214222e+00 11 11 3
-3.355882e-01 2.755668e-01 -1.881200e+00 169 102 81
3.934476e-01 2.912005e-01 -2.040361e+00 207 198 167
2.837939e-01 -2.465864e-01 -1.987720e+00 176 120 25
3.968371e-01 8.921301e-02 -1.939262e+00 77 116 178
3.925184e-01 2.919831e-01 -2.038619e+00 207 198 167
-2.266778e-01 3.423628e-01 -2.013137e+00 255 255 252
-4.459969e-02 3.577914e-01 -1.966930e+00 61 63 50
4.847213e-01 -2.053956e-02 -2.194920e+00 31 20 3
4.324093e-01 8.180017e-02 -1.938714e+00 216 211 139
4.322045e-01 8.888690e-02 -1.940384e+00 4 6 1
3.881630e-01 1.074180e-01 -1.960230e+00 13 15 12
4.405180e-02 3.112694e-01 -1.995692e+00 225 218 203
-3.555637e-01 3.402667e-01 -1.937135e+00 244 244 236
-1.238687e-01 3.802320e-01 -2.082890e+00 36 33 23
2.335365e-01 -2.006221e-01 -2.011915e+00 120 82 19
4.242370e-01 9.820797e-02 -1.929417e+00 14 16 15
-3.301923e-01 1.079321e-01 -1.927214e+00 27 25 12
-1.622963e-01 1.157984e-01 -1.922520e+00 165 154 103
3.495064e-01 2.995367e-01 -2.051530e+00 209 201 164
3.508679e-01 3.075414e-01 -2.046261e+00 210 201 171
3.105020e-01 -2.277017e-01 -2.032236e+00 209 154 47
2.598137e-01 -2.254974e-01 -2.006677e+00 205 147 48
4.537630e-01 8.332209e-02 -1.950733e+00 202 139 13
4.325352e-01 9.393226e-02 -1.940011e+00 75 56 12
4.072355e-01 9.460386e-02 -1.937499e+00 24 21 28
-1.901559e-01 -1.016581e-01 -1.963276e+00 101 82 52
-1.862799e-01 -3.500174e-02 -1.921828e+00 72 58 36
-1.616656e-01 1.108898e-01 -1.915630e+00 26 23 13
2.533076e-01 1.895760e-01 -1.929760e+00 101 101 93
1.147822e-01 2.457460e-01 -1.956649e+00 114 116 103
-3.542342e-01 2.552814e-01 -1.824689e+00 225 212 207
-2.226535e-01 3.083589e-01 -1.961551e+00 225 209 188
-2.728016e-02 -2.674097e-01 -1.829512e+00 216 177 90
-3.324714e-01 2.756723e-01 -1.873622e+00 189 69 58
-9.011193e-02 3.591885e-01 -2.071165e+00 46 47 53
8.411051e-02 2.482856e-01 -1.961444e+00 37 39 25
-3.565188e-01 2.548181e-01 -1.814803e+00 208 146 193
1.535932e-01 2.815297e-01 -2.004443e+00 71 70 68
1.011819e-01 3.044768e-01 -2.049080e+00 189 184 166
-2.039045e-01 2.990613e-01 -1.962085e+00 216 215 222
2.805278e-01 3.308503e-01 -2.112976e+00 128 123 91
2.180152e-01 3.353985e-01 -2.022088e+00 185 169 103
2.177787e-01 3.367708e-01 -2.018201e+00 40 42 28
1.763740e-01 3.381550e-01 -2.007901e+00 115 110 96
8.831287e-02 3.480933e-01 -1.987499e+00 62 64 64
-3.267886e-01 -5.302011e-02 -1.932747e+00 101 84 38
-2.675746e-01 8.092589e-02 -1.854615e+00 69 59 42
-3.276848e-01 2.289979e-01 -1.835915e+00 83 76 71
-3.276848e-01 2.289979e-01 -1.835915e+00 83 76 71
-3.403266e-01 2.287225e-01 -1.824768e+00 83 70 93
-3.339296e-01 2.692885e-01 -1.875683e+00 244 110 97
-3.293154e-01 2.871380e-01 -1.867070e+00 249 199 180
-3.401556e-01 2.855021e-01 -1.857024e+00 245 219 196
1.165426e-01 3.443631e-01 -1.979139e+00 102 103 89
1.009834e-01 3.493222e-01 -1.985384e+00 20 18 18
-2.245867e-01 -2.695593e-01 -1.809196e+00 168 131 54
-2.238064e-01 -2.689722e-01 -1.807802e+00 168 131 54
-2.358400e-01 1.778772e-02 -1.890319e+00 58 46 20
-2.502017e-01 7.745268e-02 -1.865986e+00 114 81 37
3.109760e-01 1.435742e-01 -1.907866e+00 146 215 120
-3.383401e-01 2.270801e-01 -1.826374e+00 231 242 244
9.463067e-02 2.468079e-01 -1.962629e+00 55 56 42
1.572901e-01 2.789657e-01 -2.003850e+00 88 89 83
-3.341366e-01 2.744748e-01 -1.887554e+00 205 124 102
-3.253966e-01 2.806614e-01 -1.866506e+00 228 122 99
-3.532434e-01 2.712780e-01 -1.812284e+00 169 101 159
-3.436472e-01 2.851951e-01 -1.859219e+00 178 113 98
-3.255382e-01 3.018656e-01 -1.855647e+00 252 168 145
8.531884e-02 3.366807e-01 -2.048761e+00 125 126 113
-2.708227e-01 3.466421e-01 -2.007936e+00 145 133 111
-3.299830e-01 3.033929e-01 -1.843642e+00 178 75 33
-2.678291e-01 3.503815e-01 -2.013224e+00 253 252 243
-3.745991e-01 3.513665e-01 -1.982064e+00 126 119 130
-3.745991e-01 3.513665e-01 -1.982064e+00 126 119 130
1.155079e-01 -2.677234e-01 -1.899613e+00 181 130 39
1.221463e-01 -1.567218e-01 -2.054478e+00 64 44 7
-2.304620e-01 -1.397364e-01 -1.969457e+00 228 181 63
-8.089306e-01 4.018540e-02 -1.910625e+00 174 130 51
1.093773e-01 3.377697e-01 -2.054023e+00 6 7 0
-8.068952e-01 7.993424e-02 -1.915141e+00 29 27 18
3.043511e-01 -2.254556e-01 -2.034231e+00 230 227 218
3.312707e-01 -2.045819e-01 -2.064745e+00 161 107 36
2.811096e-01 1.646577e-01 -1.923898e+00 245 165 119
3.078052e-01 1.708972e-01 -1.944634e+00 109 185 76
-7.794506e-01 7.000500e-02 -1.941399e+00 12 13 9
-4.120348e-01 2.282505e-01 -1.786293e+00 247 247 245
3.326904e-01 -2.007658e-01 -2.054659e+00 162 110 41
2.745049e-01 1.604110e-01 -1.912473e+00 51 74 48
2.996325e-01 1.673853e-01 -1.937724e+00 231 160 106
-7.946341e-01 6.169686e-02 -1.918377e+00 18 19 14
-8.323169e-01 1.329100e-01 -1.876964e+00 139 133 109
2.067213e-01 2.765918e-01 -2.025107e+00 26 28 21
-2.605204e-01 3.355219e-01 -1.990384e+00 145 129 96
2.755186e-01 -2.145247e-01 -2.044537e+00 229 223 214
2.755186e-01 -2.145247e-01 -2.044537e+00 229 223 214
2.391730e-01 1.716969e-01 -1.915681e+00 53 69 40
-8.382326e-01 6.958732e-02 -1.900429e+00 21 22 18
2.091435e-01 2.366240e-01 -2.002218e+00 64 65 58
9.835205e-02 2.548458e-01 -1.964557e+00 27 30 19
2.378539e-01 1.568858e-01 -1.894879e+00 60 85 60
-8.485577e-01 5.978608e-02 -1.894333e+00 156 118 57
-8.605873e-01 5.723200e-02 -1.890985e+00 60 49 28
-8.260484e-01 7.926681e-02 -1.897387e+00 121 91 61
1.576816e-01 2.432406e-01 -1.955349e+00 24 27 20
1.820318e-01 2.615137e-01 -1.999955e+00 31 32 26
1.994150e-01 2.683876e-01 -2.013248e+00 26 26 26
1.350008e-01 2.648654e-01 -1.988408e+00 13 19 9
6.031757e-02 3.144251e-01 -2.043598e+00 24 29 17
5.673552e-02 3.094329e-01 -1.999432e+00 11 14 4
-4.060123e-01 2.335997e-01 -1.801012e+00 176 181 201
3.085422e-01 1.456718e-01 -1.910540e+00 137 199 112
3.103553e-01 1.820623e-01 -1.962390e+00 192 197 161
-8.009777e-01 7.864793e-02 -1.924590e+00 5 6 1
-8.163476e-01 9.897609e-02 -1.893038e+00 138 125 128
1.056135e-01 2.735361e-01 -1.987747e+00 83 90 83
1.003034e-01 2.756801e-01 -1.988878e+00 16 19 8
3.277956e-01 1.494866e-01 -1.924292e+00 62 118 52
3.222566e-01 1.632205e-01 -1.940644e+00 97 176 81
3.194439e-01 1.738746e-01 -1.954337e+00 57 103 54
-7.906794e-01 8.112447e-02 -1.953530e+00 90 66 23
1.172119e-01 2.468844e-01 -1.968896e+00 27 30 21
1.172119e-01 2.468844e-01 -1.968896e+00 27 30 21
1.020575e-01 2.588129e-01 -1.967560e+00 33 39 26
1.137002e-01 2.643373e-01 -1.980401e+00 33 36 29
1.533457e-01 2.731938e-01 -2.001190e+00 18 24 16
1.083431e-01 2.669482e-01 -1.983046e+00 74 88 71
1.083431e-01 2.669482e-01 -1.983046e+00 74 88 71
1.062439e-01 2.768822e-01 -1.987949e+00 25 31 21
4.702243e-02 2.826310e-01 -1.979101e+00 23 26 15
-1.584349e-01 -6.663641e-02 -1.943874e+00 62 55 30
-1.763120e-01 -4.919836e-02 -1.930057e+00 18 15 0
3.382219e-01 1.411436e-01 -1.914671e+00 99 129 88
3.209820e-01 1.440850e-01 -1.912322e+00 73 123 74
3.231021e-01 1.482904e-01 -1.919659e+00 82 126 100
2.799875e-01 1.477443e-01 -1.899557e+00 74 83 63
3.282934e-01 1.591456e-01 -1.936240e+00 63 105 51
3.129522e-01 1.791438e-01 -1.960189e+00 83 87 70
2.801170e-01 1.807651e-01 -1.948931e+00 100 148 78
-8.479369e-01 5.463906e-02 -1.889637e+00 175 127 63
-8.021199e-01 8.201480e-02 -1.911370e+00 39 37 30
1.003142e-01 2.482580e-01 -1.962705e+00 89 91 81
-1.029701e-01 2.696372e-01 -1.932868e+00 7 108 217
-1.213534e-01 2.749050e-01 -1.926894e+00 228 226 241
2.076534e-01 3.460722e-01 -2.057382e+00 148 133 85
-3.330112e-01 2.713860e-01 -1.858724e+00 244 222 200
-3.293678e-01 2.728792e-01 -1.859331e+00 228 93 53
1.930768e-01 3.368093e-01 -2.012026e+00 138 138 122
1.936743e-01 3.365595e-01 -2.011594e+00 138 138 122
-3.320361e-01 2.879277e-01 -1.848529e+00 177 50 36
-1.500869e-01 3.548468e-01 -2.026536e+00 189 197 224
-1.500869e-01 3.548468e-01 -2.026536e+00 189 197 224
3.354962e-01 -1.907411e-01 -2.075941e+00 191 182 160
3.354962e-01 -1.907411e-01 -2.075941e+00 191 182 160
3.309635e-01 1.393920e-01 -1.909511e+00 117 192 106
3.332914e-01 1.441655e-01 -1.917350e+00 122 147 137
3.329968e-01 1.520336e-01 -1.928119e+00 65 105 56
2.956448e-01 1.682739e-01 -1.937527e+00 238 165 109
3.103478e-01 1.719172e-01 -1.948541e+00 71 141 54
2.629172e-01 1.661119e-01 -1.919622e+00 167 184 148
3.057651e-01 1.782043e-01 -1.955323e+00 68 106 51
3.082811e-01 1.920140e-01 -1.975204e+00 113 179 82
-8.515862e-01 4.980085e-02 -1.888061e+00 150 110 45
-8.493829e-01 5.768524e-02 -1.889079e+00 52 42 9
-8.493829e-01 5.768524e-02 -1.889079e+00 52 42 9
2.081577e-01 2.805301e-01 -2.027788e+00 212 207 174
1.943628e-01 2.817862e-01 -2.023704e+00 112 114 104
4.572095e-03 2.735779e-01 -1.954096e+00 81 84 73
-3.245239e-01 2.190966e-01 -1.815332e+00 200 167 78
9.721764e-02 3.442957e-01 -1.991754e+00 156 160 135
-3.358998e-01 -1.192218e-01 -1.943533e+00 131 125 82
-3.505828e-01 -2.168875e-02 -1.998154e+00 64 59 39
2.828242e-01 1.491427e-01 -1.901488e+00 94 139 77
2.719106e-01 1.501584e-01 -1.898876e+00 118 171 91
2.994748e-01 1.600273e-01 -1.926699e+00 124 130 75
2.968063e-01 1.653759e-01 -1.933362e+00 199 94 51
2.934815e-01 1.664941e-01 -1.933888e+00 204 97 45
2.770918e-01 1.633663e-01 -1.920272e+00 88 105 53
2.890964e-01 1.708057e-01 -1.938274e+00 196 86 52
2.860332e-01 1.718284e-01 -1.938233e+00 239 169 109
3.021378e-01 1.763609e-01 -1.950565e+00 110 147 97
2.622283e-01 1.687755e-01 -1.921574e+00 59 89 46
2.413260e-01 1.671225e-01 -1.911365e+00 50 72 51
2.117795e-01 2.117928e-01 -1.957489e+00 112 127 163
2.117795e-01 2.117928e-01 -1.957489e+00 112 127 163
-8.208955e-01 1.321263e-01 -1.877335e+00 95 90 74
6.167666e-02 3.098339e-01 -2.046604e+00 126 129 112
-3.161167e-01 2.319725e-01 -1.827011e+00 248 248 239
-3.521855e-01 2.511594e-01 -1.816148e+00 129 75 125
-3.227804e-01 2.733366e-01 -1.870606e+00 190 156 127
-3.244258e-01 2.842682e-01 -1.855055e+00 252 155 125
9.897720e-02 3.453175e-01 -1.991326e+00 44 44 43
3.024852e-01 -1.809407e-01 -2.094444e+00 144 106 35
-2.355028e-01 -9.970835e-02 -1.956723e+00 50 52 39
-3.285211e-01 -1.077706e-01 -1.961061e+00 102 83 46
-3.453892e-01 -2.230044e-02 -1.999171e+00 92 84 63
3.162742e-01 1.417208e-01 -1.907281e+00 124 155 108
3.320272e-01 1.470871e-01 -1.921038e+00 121 164 74
3.062641e-01 1.435729e-01 -1.904052e+00 116 172 100
2.970955e-01 1.466866e-01 -1.905886e+00 82 143 59
3.209135e-01 1.528629e-01 -1.924814e+00 83 127 56
2.395593e-01 1.595478e-01 -1.897963e+00 157 193 129
-7.779794e-01 5.681659e-02 -1.926086e+00 130 93 31
-8.035349e-01 5.222323e-02 -1.905555e+00 129 100 43
2.825848e-01 2.014112e-01 -1.980032e+00 127 118 108
1.046264e-01 2.722202e-01 -1.985559e+00 118 124 112
1.554159e-01 2.815908e-01 -2.014273e+00 62 64 60
-8.435204e-02 2.542860e-01 -1.917013e+00 221 238 239
-4.992881e-02 3.019044e-01 -1.981389e+00 204 200 198
-4.039139e-01 2.280723e-01 -1.796436e+00 104 115 150
-3.533477e-01 2.523773e-01 -1.830711e+00 167 113 125
-3.237971e-01 2.679653e-01 -1.872598e+00 231 198 190
-3.593596e-01 2.505665e-01 -1.810255e+00 180 120 76
-3.593596e-01 2.505665e-01 -1.810255e+00 180 120 76
-3.244185e-01 2.813883e-01 -1.867968e+00 210 98 78
9.464999e-02 3.440573e-01 -1.991414e+00 174 177 148
9.288065e-02 3.475881e-01 -1.991976e+00 188 190 177
-2.120441e-01 3.577108e-01 -2.028253e+00 169 170 185
-3.240267e-01 3.027012e-01 -1.854430e+00 206 100 77
-3.240267e-01 3.027012e-01 -1.854430e+00 206 100 77
-3.290529e-01 3.055568e-01 -1.841394e+00 163 63 39
2.153910e-01 3.479671e-01 -2.161420e+00 57 51 25
-1.582717e-01 1.198788e-01 -1.924034e+00 133 124 75
-1.582717e-01 1.198788e-01 -1.924034e+00 133 124 75
-6.274890e-02 -1.565041e-01 -1.967739e+00 97 95 80
4.364129e-01 -1.571969e-01 -2.107310e+00 86 55 5
-2.657584e-01 8.533809e-02 -1.859226e+00 14 15 9
-1.814546e-01 9.865821e-02 -1.906028e+00 86 66 42
1.943352e-01 2.758745e-01 -2.010178e+00 46 49 37
2.013251e-01 2.823236e-01 -2.014408e+00 216 213 193
-8.848592e-02 2.602702e-01 -1.932521e+00 94 103 92
3.330209e-01 -1.801106e-01 -2.057042e+00 182 132 34
-1.608528e-01 1.232666e-01 -1.920555e+00 171 159 108
1.753239e-01 2.687645e-01 -1.998236e+00 52 55 44
3.814177e-01 2.520585e-01 -2.057759e+00 164 158 133
3.495046e-01 3.199724e-01 -2.163206e+00 179 179 155
-8.467901e-02 2.555227e-01 -1.933770e+00 234 232 225
1.072491e-01 2.704472e-01 -1.976589e+00 137 138 130
3.438916e-01 2.583044e-01 -2.062727e+00 59 62 51
3.428143e-01 2.651736e-01 -2.063728e+00 153 150 129
1.134247e-01 3.018268e-01 -2.056044e+00 200 201 184
2.319628e-01 3.307477e-01 -2.014802e+00 188 184 167
-7.692962e-02 -1.535957e-01 -1.963131e+00 154 150 126
-2.587238e-02 6.482424e-02 -1.694483e+00 72 61 40
-1.590985e-01 1.097083e-01 -1.925924e+00 37 38 23
1.020044e-01 3.066051e-01 -2.046292e+00 111 115 97
2.165071e-01 3.297318e-01 -2.009659e+00 37 44 35
-1.722476e-01 1.158900e-02 -1.891032e+00 49 39 18
8.577963e-02 3.355632e-01 -2.050579e+00 145 146 122
5.554653e-02 3.011783e-01 -1.996175e+00 90 94 79
-1.148336e-01 2.539255e-01 -1.921602e+00 247 248 246
1.888540e-01 2.804605e-01 -2.008293e+00 163 166 153
9.421603e-02 3.443774e-01 -1.992259e+00 179 176 156
3.316352e-01 2.946245e-01 -2.055894e+00 209 204 184
7.748786e-02 3.114426e-01 -2.004315e+00 196 193 178
-6.996875e-02 -1.459697e-01 -1.968879e+00 38 40 27
5.627672e-02 3.531371e-01 -2.074404e+00 12 14 0
-7.791436e-03 2.532966e-01 -1.948455e+00 85 87 76
5.293042e-03 2.589951e-01 -1.943274e+00 30 31 23
1.469740e-01 2.769268e-01 -1.995026e+00 144 146 125
1.115807e-01 2.499434e-01 -1.958020e+00 41 47 34
2.366251e-01 3.321513e-01 -2.153699e+00 173 170 145
3.808840e-03 -3.593409e-03 -1.788356e+00 185 181 173
1.462805e-02 2.552949e-01 -1.943299e+00 164 167 157
6.068988e-03 2.640946e-01 -1.946813e+00 35 41 25
1.104461e-01 2.647563e-01 -1.975600e+00 106 107 101
1.763860e-01 2.433022e-01 -1.969153e+00 39 42 33
1.117375e-01 2.730075e-01 -1.981666e+00 22 25 16
1.827635e-01 2.679600e-01 -1.997861e+00 28 35 17
1.928319e-01 2.671634e-01 -1.998351e+00 25 32 11
8.632287e-02 3.427499e-01 -2.055817e+00 37 50 24
2.277757e-01 3.295623e-01 -2.014766e+00 44 49 27
4.464835e-03 -1.415495e-03 -1.789532e+00 76 67 56
1.247559e-01 2.664520e-01 -1.980923e+00 104 108 93
1.712918e-01 2.622718e-01 -1.988885e+00 80 82 68
1.649904e-01 2.657991e-01 -1.988325e+00 161 164 154
1.740583e-01 2.633700e-01 -1.988275e+00 36 44 23
1.740583e-01 2.633700e-01 -1.988275e+00 36 44 23
8.060125e-02 3.543083e-01 -2.061382e+00 35 45 24
2.319745e-01 3.305696e-01 -2.015036e+00 181 178 154
1.792896e-01 2.486278e-01 -1.973974e+00 35 38 30
2.174381e-01 3.298659e-01 -2.012509e+00 47 47 27
1.966934e-01 2.776051e-01 -2.007570e+00 134 137 129
1.157500e-01 2.523094e-01 -1.962942e+00 56 61 55
8.562490e-02 3.570117e-01 -2.059136e+00 169 168 151
3.269629e-01 6.167483e-02 -1.061144e+00 0 255 0
3.113016e-01 5.824297e-02 -1.108503e+00 255 255 0
4.679741e-01 7.468737e-02 -1.124379e+00 255 0 0
4.422109e-01 6.975852e-02 -1.166946e+00 255 255 0
1.561720e-01 6.400938e-02 -1.016899e+00 0 255 0
1.516163e-01 6.157429e-02 -1.066632e+00 255 255 0
5.725504e-01 1.261117e-01 -1.233751e+00 255 0 0
5.388344e-01 1.168841e-01 -1.269501e+00 255 255 0
-1.401593e-01 1.524219e-01 -1.099713e+00 0 255 0
-1.235756e-01 1.464002e-01 -1.146497e+00 255 255 0
-5.338768e-03 1.112896e-01 -1.066747e+00 255 0 0
2.091259e-03 1.069713e-01 -1.116003e+00 255 255 0
