ply
format ascii 1.0
element face 0
property list uchar int vertex_indices
element vertex 936
property float x
property float y
property float z
property uchar diffuse_red
property uchar diffuse_green
property uchar diffuse_blue
end_header
2.686511e-01 -6.361391e-01 -1.636364e+00 21 15 2
-3.155033e-01 -6.292898e-01 -1.737147e+00 198 219 152
-3.313994e-01 -6.473615e-01 -1.770434e+00 34 86 23
3.525238e-01 -6.029949e-01 -1.641322e+00 69 67 53
3.551475e-01 -6.052829e-01 -1.644452e+00 69 67 53
4.229520e-01 -5.727285e-01 -1.647989e+00 83 81 56
4.286009e-01 -5.768214e-01 -1.653678e+00 83 81 56
-1.238311e-01 -5.712963e-01 -1.747589e+00 211 230 161
-1.238789e-01 -5.674395e-01 -1.741602e+00 211 230 161
4.419960e-01 -5.696841e-01 -1.653727e+00 87 82 60
3.929614e-02 -5.556922e-01 -1.741196e+00 146 139 86
6.563609e-01 -5.619648e-01 -1.646851e+00 40 31 14
6.654921e-01 -5.658400e-01 -1.663406e+00 39 31 10
-2.615459e-02 -5.325315e-01 -1.738894e+00 218 236 164
-2.414845e-02 -5.405758e-01 -1.752285e+00 218 236 164
5.307040e-01 -5.175423e-01 -1.646954e+00 81 78 61
5.091408e-01 -5.067410e-01 -1.629761e+00 81 78 61
2.322620e-02 -5.144337e-01 -1.736754e+00 213 230 159
6.560009e-02 -4.845121e-01 -1.713112e+00 210 228 154
6.388511e-01 -5.187235e-01 -1.695447e+00 199 186 141
5.577568e-01 -4.666819e-01 -1.659432e+00 65 54 25
1.429136e-01 -4.556380e-01 -1.719507e+00 16 89 11
3.010646e-01 -4.136091e-01 -1.738138e+00 22 14 1
-2.248375e-01 -3.990595e-01 -1.826917e+00 96 36 7
-2.248375e-01 -3.990595e-01 -1.826917e+00 96 36 7
-8.573285e-02 -3.661198e-01 -1.824600e+00 75 6 5
6.184502e-02 -3.654612e-01 -1.878172e+00 146 94 66
-1.521464e-01 -3.295566e-01 -1.824260e+00 162 86 47
-1.521346e-01 -3.296062e-01 -1.824565e+00 162 86 47
7.278426e-02 -3.392513e-01 -1.852272e+00 208 192 157
-8.027544e-02 -3.052155e-01 -1.842789e+00 70 8 5
-2.722664e-01 -2.701640e-01 -1.832804e+00 96 51 11
-2.721169e-01 -2.700331e-01 -1.832347e+00 96 51 11
5.087834e-01 -3.215934e-01 -1.887054e+00 70 62 29
-3.509768e-01 -2.514096e-01 -1.872848e+00 103 59 14
-3.509768e-01 -2.514096e-01 -1.872848e+00 103 59 14
-1.005864e-01 -2.315740e-01 -1.824007e+00 151 56 20
-3.089633e-01 -2.192389e-01 -1.846121e+00 103 46 9
-2.839308e-01 -1.778409e-01 -1.836251e+00 100 59 0
-4.050109e-01 -1.588550e-01 -1.887307e+00 145 91 44
-1.077343e-01 -1.746494e-01 -1.822375e+00 152 88 17
-1.089415e-01 -1.741312e-01 -1.805199e+00 152 88 17
-2.879325e-01 -1.611013e-01 -1.837597e+00 122 62 4
-4.204844e-02 -1.592151e-01 -1.834938e+00 94 47 5
-7.251201e-03 -1.580194e-01 -1.838321e+00 137 77 10
-7.978344e-02 -1.398072e-01 -1.818770e+00 114 58 39
-3.842486e-02 -1.349696e-01 -1.830159e+00 94 40 11
-3.361388e-01 -1.150030e-01 -1.848858e+00 96 46 0
-3.361388e-01 -1.150030e-01 -1.848858e+00 96 46 0
-4.880801e-02 -1.272759e-01 -1.820920e+00 139 79 6
-4.880801e-02 -1.272759e-01 -1.820920e+00 139 79 6
-3.241937e-02 -1.244935e-01 -1.823447e+00 139 79 8
-3.241937e-02 -1.244935e-01 -1.823447e+00 139 79 8
-3.535188e-02 -1.157973e-01 -1.824996e+00 83 28 1
-1.950848e-01 -1.062746e-01 -1.801035e+00 98 44 11
-1.956300e-01 -1.049030e-01 -1.810405e+00 98 44 11
-9.783230e-02 -1.001021e-01 -1.813084e+00 144 87 13
-1.194070e-01 -1.000934e-01 -1.806746e+00 146 84 10
-1.191291e-01 -9.937556e-02 -1.811937e+00 146 84 10
-3.096511e-01 -6.194491e-02 -1.846392e+00 179 105 71
-1.346739e-01 -7.279773e-02 -1.810557e+00 146 90 8
-3.221493e-01 -5.939378e-02 -1.841190e+00 168 98 62
2.004895e-02 -7.107135e-02 -1.809911e+00 92 50 10
2.129270e-02 -7.055250e-02 -1.813403e+00 92 50 10
-3.271935e-01 -4.131639e-02 -1.836232e+00 154 81 41
-3.621424e-01 -2.650288e-02 -1.847941e+00 170 101 62
-1.030553e-01 1.393192e-02 -1.842552e+00 255 239 210
-6.902958e-02 1.945301e-01 -1.853830e+00 65 56 77
-1.841626e-01 2.087094e-01 -1.872861e+00 67 54 78
-2.265181e-01 2.241770e-01 -1.891519e+00 62 50 75
-1.701655e-01 2.254047e-01 -1.889534e+00 115 99 99
-1.701655e-01 2.254047e-01 -1.889534e+00 115 99 99
-1.857310e-01 2.204823e-01 -1.876476e+00 107 92 90
1.629206e+00 4.827532e-01 -2.180098e+00 18 18 0
1.494036e+00 4.970454e-01 -2.180287e+00 121 104 81
3.052527e-01 -8.057161e-01 -1.669976e+00 91 71 43
2.740366e-01 -7.957582e-01 -1.671087e+00 123 114 85
2.626054e-01 -7.788430e-01 -1.673174e+00 23 21 1
2.425544e-01 -7.488997e-01 -1.670804e+00 39 34 15
2.512601e-01 -7.637432e-01 -1.694400e+00 30 24 6
6.755029e-01 -7.874820e-01 -1.669693e+00 170 165 103
-4.300174e-01 -7.341488e-01 -1.780570e+00 148 163 110
-4.244479e-01 -7.237881e-01 -1.767506e+00 148 163 110
6.899736e-01 -7.580284e-01 -1.670006e+00 182 171 118
-4.383144e-01 -6.981161e-01 -1.759413e+00 32 92 15
-4.320228e-01 -6.872002e-01 -1.746535e+00 32 92 15
-3.130623e-01 -6.777831e-01 -1.749560e+00 57 84 13
2.216216e-01 -7.206640e-01 -1.725445e+00 36 29 9
2.722849e-01 -6.431563e-01 -1.631783e+00 18 17 7
2.143834e-01 -7.085843e-01 -1.721008e+00 31 24 6
2.850844e-01 -6.494028e-01 -1.648038e+00 144 141 109
2.068682e-01 -6.951931e-01 -1.722925e+00 27 22 5
3.009720e-01 -6.620198e-01 -1.671071e+00 29 26 7
-2.479797e-01 -6.752481e-01 -1.768759e+00 179 170 113
-2.170664e-01 -6.503283e-01 -1.756799e+00 65 80 12
3.796191e-01 -5.940431e-01 -1.646697e+00 79 76 58
3.876920e-01 -6.008984e-01 -1.655512e+00 79 76 58
-1.498725e-01 -5.853694e-01 -1.741159e+00 26 104 7
6.946203e-01 -6.078890e-01 -1.655576e+00 37 28 3
4.659535e-01 -5.540651e-01 -1.650350e+00 96 93 69
4.659535e-01 -5.540651e-01 -1.650350e+00 96 93 69
4.889035e-01 -5.441752e-01 -1.651381e+00 101 99 72
-2.986040e-02 -5.251956e-01 -1.756425e+00 189 175 140
1.197471e-01 -5.253603e-01 -1.743290e+00 21 35 9
5.825146e-02 -4.917360e-01 -1.710645e+00 16 114 9
4.351423e-02 -4.840254e-01 -1.713334e+00 16 84 19
1.700432e-01 -4.971426e-01 -1.732836e+00 95 112 74
-3.070872e-01 -4.508351e-01 -1.859987e+00 113 53 17
-3.070872e-01 -4.508351e-01 -1.859987e+00 113 53 17
-3.795597e-02 -4.546552e-01 -1.830340e+00 88 2 1
-3.795597e-02 -4.546552e-01 -1.830340e+00 88 2 1
2.036528e-01 -4.387308e-01 -1.737637e+00 228 236 181
-3.240999e-01 -4.305150e-01 -1.837555e+00 106 54 7
-4.434003e-02 -4.566920e-01 -1.864359e+00 87 0 0
-5.062274e-02 -4.414964e-01 -1.822828e+00 87 0 0
-3.033232e-02 -4.521450e-01 -1.863662e+00 78 0 0
-2.441572e-01 -4.225345e-01 -1.838459e+00 156 91 23
-2.441572e-01 -4.225345e-01 -1.838459e+00 156 91 23
-1.099042e-01 -4.254270e-01 -1.839859e+00 98 11 6
-3.641092e-01 -4.249642e-01 -1.901372e+00 104 49 3
-3.594312e-01 -4.205386e-01 -1.887458e+00 104 49 3
-3.749295e-01 -4.107354e-01 -1.874304e+00 172 104 46
-3.749295e-01 -4.107354e-01 -1.874304e+00 172 104 46
-2.955421e-01 -3.916198e-01 -1.849824e+00 107 52 12
-2.262974e-01 -3.723830e-01 -1.816012e+00 146 79 15
-2.278337e-01 -3.752705e-01 -1.825486e+00 146 79 15
-3.550040e-01 -3.736419e-01 -1.873180e+00 112 55 5
-3.550040e-01 -3.736419e-01 -1.873180e+00 112 55 5
-2.362756e-01 -3.470015e-01 -1.834018e+00 153 90 18
-2.370958e-01 -3.482969e-01 -1.839185e+00 153 90 18
-9.645868e-02 -3.545860e-01 -1.826870e+00 79 4 0
-9.645868e-02 -3.545860e-01 -1.826870e+00 79 4 0
-3.809484e-02 -3.574107e-01 -1.828689e+00 75 2 1
-7.840276e-02 -3.584806e-01 -1.847291e+00 75 11 8
-2.793716e-02 -3.532361e-01 -1.821094e+00 71 4 2
-2.793716e-02 -3.532361e-01 -1.821094e+00 71 4 2
-7.342554e-02 -3.415341e-01 -1.792443e+00 67 2 1
-9.367976e-02 -3.459317e-01 -1.825250e+00 142 37 9
-5.523326e-02 -3.559736e-01 -1.856604e+00 71 4 4
-5.431041e-02 -3.575182e-01 -1.860561e+00 71 4 4
-6.169567e-03 -3.458856e-01 -1.820770e+00 74 4 1
7.771134e-03 -3.453199e-01 -1.835116e+00 76 0 0
1.027027e-02 -3.488154e-01 -1.846490e+00 76 0 0
-4.306797e-02 -3.368959e-01 -1.850889e+00 80 1 0
-2.279667e-01 -3.169208e-01 -1.830164e+00 152 92 17
-2.279667e-01 -3.169208e-01 -1.830164e+00 152 92 17
-2.361776e-01 -3.167783e-01 -1.835009e+00 150 87 19
-2.364826e-01 -3.172722e-01 -1.837576e+00 150 87 19
3.696317e-03 -3.225134e-01 -1.802538e+00 80 5 4
-2.300803e-02 -3.238225e-01 -1.819916e+00 74 2 2
-7.032691e-03 -3.212510e-01 -1.827151e+00 79 0 1
-2.360853e-01 -3.010255e-01 -1.832168e+00 155 98 20
-2.362589e-01 -3.014019e-01 -1.833407e+00 155 98 20
-5.541576e-02 -3.162923e-01 -1.850397e+00 81 11 12
-5.548685e-02 -3.158563e-01 -1.850244e+00 81 11 12
-3.393036e-02 -3.114623e-01 -1.852374e+00 70 4 0
-3.414565e-02 -3.116284e-01 -1.855207e+00 70 4 0
-1.046736e-01 -2.949040e-01 -1.821740e+00 140 41 12
-3.509691e-02 -2.988025e-01 -1.821268e+00 137 40 19
-3.509691e-02 -2.988025e-01 -1.821268e+00 137 40 19
-5.118710e-02 -2.948509e-01 -1.814722e+00 73 3 8
-5.118710e-02 -2.948509e-01 -1.814722e+00 73 3 8
-4.284127e-02 -2.926433e-01 -1.819613e+00 74 8 8
-4.370401e-02 -2.912239e-01 -1.812132e+00 74 8 8
-1.129972e-01 -2.854268e-01 -1.812845e+00 70 5 4
-1.121941e-01 -2.887237e-01 -1.833562e+00 70 5 4
-8.038640e-02 -2.891893e-01 -1.836497e+00 76 12 4
-8.038640e-02 -2.891893e-01 -1.836497e+00 76 12 4
-4.130207e-02 -2.836491e-01 -1.814512e+00 138 36 14
-2.902864e-02 -2.794501e-01 -1.804771e+00 136 37 16
-3.230371e-02 -2.806993e-01 -1.846252e+00 81 9 7
-3.496415e-02 -2.781165e-01 -1.829133e+00 81 9 7
8.996642e-03 -2.803592e-01 -1.835387e+00 72 3 1
-3.478655e-03 -2.752862e-01 -1.820148e+00 131 38 14
-1.104689e-01 -2.646677e-01 -1.816848e+00 162 76 36
-9.884794e-03 -2.768102e-01 -1.858644e+00 75 5 1
2.590792e-02 -2.731029e-01 -1.836145e+00 73 1 4
2.603349e-02 -2.734032e-01 -1.837736e+00 73 1 4
4.978116e-01 -3.094247e-01 -1.920994e+00 210 192 154
-3.582310e-01 -2.433940e-01 -1.864397e+00 110 62 11
-3.718479e-01 -2.135235e-01 -1.879970e+00 112 72 4
-2.577090e-01 -2.142265e-01 -1.832901e+00 124 81 29
-2.577090e-01 -2.142265e-01 -1.832901e+00 124 81 29
5.298794e-03 -2.290421e-01 -1.816965e+00 160 66 38
-3.395471e-01 -2.094432e-01 -1.857387e+00 106 57 1
-2.806076e-01 -2.112093e-01 -1.865269e+00 97 55 6
-2.765553e-01 -2.110894e-01 -1.841619e+00 97 55 6
-3.194307e-01 -2.055825e-01 -1.842922e+00 155 108 27
-2.999015e-01 -2.047792e-01 -1.837984e+00 106 59 4
-2.994141e-01 -2.046453e-01 -1.836244e+00 106 59 4
3.652372e-01 -2.439813e-01 -1.875790e+00 15 7 0
-2.906389e-01 -1.905905e-01 -1.829836e+00 124 69 3
-2.906389e-01 -1.905905e-01 -1.829836e+00 124 69 3
-3.064485e-01 -1.882342e-01 -1.855052e+00 114 58 1
-3.032971e-01 -1.882483e-01 -1.839130e+00 114 58 1
-2.844856e-01 -1.857148e-01 -1.836638e+00 164 108 27
-3.188173e-01 -1.835319e-01 -1.843398e+00 118 60 1
-3.681168e-01 -1.811811e-01 -1.867809e+00 119 78 13
-3.579891e-01 -1.793148e-01 -1.867298e+00 156 103 29
-3.579891e-01 -1.793148e-01 -1.867298e+00 156 103 29
-3.475865e-01 -1.744617e-01 -1.856339e+00 124 69 5
-3.475865e-01 -1.744617e-01 -1.856339e+00 124 69 5
-3.309785e-01 -1.720066e-01 -1.848452e+00 160 110 30
-3.081473e-01 -1.726051e-01 -1.850898e+00 109 64 5
-3.081473e-01 -1.726051e-01 -1.850898e+00 109 64 5
-3.086381e-01 -1.727788e-01 -1.852836e+00 109 64 5
-3.479717e-01 -1.654324e-01 -1.857162e+00 164 117 36
-3.544246e-01 -1.633800e-01 -1.858261e+00 160 108 32
-4.941608e-02 -1.748666e-01 -1.811020e+00 90 33 8
-4.737435e-02 -1.751746e-01 -1.828659e+00 90 33 8
-9.771200e-02 -1.721715e-01 -1.811260e+00 147 93 16
-1.199105e-01 -1.710137e-01 -1.824037e+00 152 89 14
-3.509626e-01 -1.573608e-01 -1.866687e+00 99 59 4
-3.040030e-01 -1.566225e-01 -1.839813e+00 119 64 3
-1.146917e-01 -1.654804e-01 -1.813577e+00 98 37 4
-2.370198e-02 -1.701471e-01 -1.818390e+00 92 38 16
-2.110611e-02 -1.704554e-01 -1.836397e+00 92 38 16
-4.645882e-02 -1.671736e-01 -1.827946e+00 134 77 6
-4.645882e-02 -1.671736e-01 -1.827946e+00 134 77 6
-3.293284e-01 -1.489763e-01 -1.849252e+00 115 63 1
-1.998763e-02 -1.622617e-01 -1.836100e+00 137 78 15
-1.995333e-02 -1.621254e-01 -1.836535e+00 137 78 15
-3.519237e-01 -1.395812e-01 -1.852690e+00 119 67 3
-2.701206e-02 -1.563508e-01 -1.834451e+00 75 23 6
-2.682145e-02 -1.564528e-01 -1.834484e+00 75 23 6
-3.363312e-01 -1.315352e-01 -1.855859e+00 112 66 1
-3.543383e-01 -1.310411e-01 -1.854625e+00 160 115 30
3.632164e-02 -1.499678e-01 -1.831868e+00 81 28 5
-1.265705e-01 -1.409748e-01 -1.813266e+00 100 45 21
-1.886718e-01 -1.344572e-01 -1.815874e+00 158 102 20
-1.990502e-01 -1.340621e-01 -1.814465e+00 153 100 16
1.939170e-02 -1.424526e-01 -1.822681e+00 94 41 19
-1.069991e-01 -1.328646e-01 -1.810446e+00 147 87 11
-5.433246e-02 -1.350858e-01 -1.810000e+00 78 18 1
-5.415605e-02 -1.351240e-01 -1.811362e+00 78 18 1
-9.472378e-02 -1.322567e-01 -1.803959e+00 149 90 14
-9.472378e-02 -1.322567e-01 -1.803959e+00 149 90 14
-8.095130e-02 -1.316386e-01 -1.812532e+00 147 88 8
-5.468933e-02 -1.277279e-01 -1.821759e+00 143 84 9
-3.300819e-01 -1.083942e-01 -1.847575e+00 169 118 34
-3.671955e-02 -1.249505e-01 -1.824188e+00 138 78 8
-3.622903e-02 -1.248536e-01 -1.828753e+00 138 78 8
-2.055816e-02 -1.216265e-01 -1.832740e+00 142 81 14
-2.145833e-02 -1.217848e-01 -1.826676e+00 142 81 14
-1.155119e-01 -1.179333e-01 -1.811429e+00 148 89 12
-1.155119e-01 -1.179333e-01 -1.811429e+00 148 89 12
-3.655127e-01 -1.011097e-01 -1.857801e+00 113 65 9
-9.912151e-02 -1.172666e-01 -1.809808e+00 152 91 12
-9.930110e-02 -1.173852e-01 -1.807126e+00 152 91 12
-3.593047e-01 -9.728327e-02 -1.860907e+00 156 111 39
-2.941167e-02 -1.166223e-01 -1.810768e+00 106 51 19
-2.941167e-02 -1.166223e-01 -1.810768e+00 106 51 19
2.841595e-02 -1.152192e-01 -1.815982e+00 110 59 4
2.841595e-02 -1.152192e-01 -1.815982e+00 110 59 4
-3.559040e-01 -9.069512e-02 -1.853709e+00 109 64 5
-3.559040e-01 -9.069512e-02 -1.853709e+00 109 64 5
-8.936862e-02 -1.071447e-01 -1.807630e+00 93 35 15
-8.943340e-02 -1.070653e-01 -1.812304e+00 93 35 15
-1.093151e-01 -1.000073e-01 -1.809894e+00 146 88 6
1.346840e-02 -1.048631e-01 -1.813350e+00 100 43 1
1.212096e-02 -1.054082e-01 -1.806015e+00 100 43 1
1.275500e-02 -1.053337e-01 -1.809392e+00 100 43 1
3.107389e-02 -9.864517e-02 -1.822309e+00 108 57 6
2.871799e-02 -1.000508e-01 -1.811489e+00 108 57 6
-2.439362e-01 -8.653892e-02 -1.797918e+00 143 45 9
-2.745850e-01 -8.061895e-02 -1.830404e+00 147 45 11
-2.531549e-01 -7.679325e-02 -1.824713e+00 156 81 44
4.874343e-02 -8.911984e-02 -1.829217e+00 107 54 4
1.365323e-02 -8.949677e-02 -1.811118e+00 92 36 0
1.351511e-02 -8.957102e-02 -1.810221e+00 92 36 0
-3.673300e-01 -6.413217e-02 -1.857593e+00 106 57 0
-2.867521e-01 -7.029763e-02 -1.823110e+00 156 86 52
-4.317971e-02 -7.927409e-02 -1.826773e+00 93 43 31
3.223232e-02 -8.285412e-02 -1.823943e+00 111 62 13
1.424302e-02 -8.070967e-02 -1.814183e+00 149 95 24
-1.139311e-01 -7.235912e-02 -1.802480e+00 76 21 6
-9.331893e-02 -7.189851e-02 -1.803349e+00 99 48 15
1.022024e-02 -7.230094e-02 -1.822843e+00 94 50 11
1.022024e-02 -7.230094e-02 -1.822843e+00 94 50 11
-3.498305e-01 -5.073208e-02 -1.844827e+00 165 92 51
-1.223706e-01 -6.554171e-02 -1.799614e+00 170 108 21
-1.220579e-01 -6.522807e-02 -1.800823e+00 170 108 21
-4.111901e-01 -5.299411e-03 -1.895058e+00 148 108 63
9.415310e-02 7.475095e-03 -1.862115e+00 163 108 65
-2.157211e-01 2.117209e-01 -1.874105e+00 63 51 71
-1.077622e-01 2.086263e-01 -1.869870e+00 59 50 68
6.445055e-04 2.071321e-01 -1.868658e+00 54 37 43
-5.360246e-02 2.051984e-01 -1.861023e+00 116 103 95
-6.766629e-02 2.135596e-01 -1.875536e+00 119 99 98
-7.684979e-02 2.114648e-01 -1.869460e+00 115 100 97
-1.846969e-02 2.087515e-01 -1.864446e+00 53 40 56
-1.844306e-02 2.081530e-01 -1.862813e+00 53 40 56
-1.341540e-01 2.181377e-01 -1.876913e+00 111 98 98
-1.342274e-01 2.207728e-01 -1.882253e+00 111 98 98
2.878422e+00 5.674440e-01 -2.573657e+00 69 62 54
2.876265e-01 -8.068301e-01 -1.672016e+00 45 27 3
3.230299e-01 -8.096236e-01 -1.671925e+00 66 65 46
3.178697e-01 -8.122393e-01 -1.675341e+00 64 57 36
3.349291e-01 -8.008264e-01 -1.669016e+00 67 68 52
3.821776e-01 -7.542216e-01 -1.668881e+00 85 86 72
2.705352e-01 -7.220682e-01 -1.655560e+00 53 55 44
-3.980499e-01 -7.184326e-01 -1.757041e+00 69 69 21
6.927612e-01 -7.674227e-01 -1.679681e+00 79 74 55
-3.693090e-01 -6.945728e-01 -1.751819e+00 148 165 109
-3.693090e-01 -6.945728e-01 -1.751819e+00 148 165 109
-3.508402e-01 -6.891057e-01 -1.745114e+00 141 156 98
-4.156833e-01 -6.847441e-01 -1.757547e+00 53 110 53
-3.309625e-01 -6.992721e-01 -1.772280e+00 68 86 34
-4.423855e-01 -6.738557e-01 -1.763781e+00 199 192 160
6.869276e-01 -7.288943e-01 -1.669357e+00 41 36 3
-3.023712e-01 -6.693997e-01 -1.740587e+00 154 157 95
2.792104e-01 -6.377088e-01 -1.632373e+00 30 25 10
2.705859e-01 -6.456358e-01 -1.651765e+00 87 85 73
-2.718914e-01 -6.578407e-01 -1.746993e+00 162 174 117
-2.478914e-01 -6.714927e-01 -1.764542e+00 178 172 112
-3.103370e-01 -6.571688e-01 -1.756351e+00 40 101 45
2.694611e-01 -6.471446e-01 -1.660148e+00 72 73 57
2.690896e-01 -6.466156e-01 -1.659542e+00 72 73 57
-1.511212e-01 -6.283855e-01 -1.757341e+00 62 85 7
3.720223e-01 -6.107648e-01 -1.656158e+00 74 72 59
3.872827e-01 -5.887228e-01 -1.646369e+00 82 81 61
3.950772e-01 -5.949176e-01 -1.654715e+00 82 81 61
6.973216e-01 -5.951713e-01 -1.657739e+00 83 75 27
2.048692e-02 -5.626381e-01 -1.747838e+00 60 68 13
-8.711909e-02 -5.482437e-01 -1.745631e+00 27 80 19
4.797547e-01 -5.496671e-01 -1.651839e+00 94 89 68
4.797547e-01 -5.496671e-01 -1.651839e+00 94 89 68
1.278866e-01 -5.781324e-01 -1.784671e+00 27 18 2
-3.755764e-02 -5.380639e-01 -1.755757e+00 28 82 22
7.311434e-02 -5.370257e-01 -1.742803e+00 133 144 97
7.071800e-02 -5.324602e-01 -1.735193e+00 133 144 97
7.863583e-03 -5.161123e-01 -1.752635e+00 221 235 192
1.370401e-01 -5.125396e-01 -1.739362e+00 8 40 5
1.037372e-01 -5.023749e-01 -1.738177e+00 27 99 5
5.560008e-02 -4.886218e-01 -1.727382e+00 22 75 9
5.636077e-02 -4.952451e-01 -1.745886e+00 216 232 181
1.562624e-01 -4.908084e-01 -1.738803e+00 179 201 136
1.061503e-01 -4.768519e-01 -1.744667e+00 219 240 183
2.198317e-01 -4.794392e-01 -1.732023e+00 81 95 65
1.613070e-01 -4.513555e-01 -1.720589e+00 17 75 0
5.504491e-01 -4.604003e-01 -1.662493e+00 65 52 27
1.684086e-01 -4.438137e-01 -1.716863e+00 22 70 2
-2.338759e-01 -4.607675e-01 -1.842592e+00 97 38 0
7.162972e-02 -4.872400e-01 -1.843678e+00 130 110 81
-8.718232e-02 -4.654916e-01 -1.829742e+00 83 3 0
-8.718232e-02 -4.654916e-01 -1.829742e+00 83 3 0
-2.947175e-01 -4.491127e-01 -1.848267e+00 98 31 2
-5.864711e-02 -4.625883e-01 -1.837099e+00 95 5 3
-5.731710e-02 -4.668047e-01 -1.846048e+00 95 5 3
-1.084868e-01 -4.604485e-01 -1.847419e+00 85 1 1
-1.091703e-01 -4.548771e-01 -1.833442e+00 85 1 1
2.093513e-01 -4.424030e-01 -1.738604e+00 11 70 14
-3.222239e-01 -4.426982e-01 -1.859780e+00 92 38 1
-3.240203e-01 -4.355017e-01 -1.861280e+00 157 93 32
-3.240203e-01 -4.355017e-01 -1.861280e+00 157 93 32
-3.358550e-01 -4.348122e-01 -1.870550e+00 159 99 36
-3.349015e-01 -4.334464e-01 -1.867291e+00 159 99 36
-3.428206e-01 -4.271386e-01 -1.863529e+00 157 93 29
-3.428206e-01 -4.271386e-01 -1.863529e+00 157 93 29
-3.320913e-01 -4.251113e-01 -1.863401e+00 98 42 0
-3.317729e-01 -4.249236e-01 -1.861728e+00 98 42 0
-3.644573e-01 -4.301358e-01 -1.881184e+00 110 47 0
-3.708988e-01 -4.378253e-01 -1.903043e+00 110 47 0
-2.266649e-01 -4.212186e-01 -1.829029e+00 148 81 23
-2.370121e-02 -4.360273e-01 -1.827075e+00 84 0 0
-2.298645e-02 -4.371941e-01 -1.832000e+00 84 0 0
2.533459e-01 -4.264846e-01 -1.738611e+00 155 116 55
-6.851057e-02 -4.328597e-01 -1.833231e+00 99 2 2
-6.885328e-02 -4.315179e-01 -1.829847e+00 99 2 2
-3.464595e-01 -4.181209e-01 -1.864682e+00 102 43 2
-3.466651e-01 -4.182555e-01 -1.865425e+00 102 43 2
-4.201520e-03 -4.293386e-01 -1.817243e+00 113 30 18
-3.656167e-01 -4.179663e-01 -1.875778e+00 158 104 42
2.731064e-01 -4.167492e-01 -1.724751e+00 165 129 66
-4.699157e-02 -4.302238e-01 -1.842706e+00 84 0 1
-4.699157e-02 -4.302238e-01 -1.842706e+00 84 0 1
-4.609021e-02 -4.323104e-01 -1.847206e+00 84 0 1
-3.233543e-01 -4.097491e-01 -1.852084e+00 95 27 0
-3.239536e-01 -4.107122e-01 -1.855207e+00 95 27 0
-3.476664e-01 -4.124048e-01 -1.869159e+00 155 97 31
-3.476664e-01 -4.124048e-01 -1.869159e+00 155 97 31
-6.065894e-02 -4.201571e-01 -1.826510e+00 139 40 18
-6.041616e-02 -4.204119e-01 -1.826876e+00 139 40 18
-2.262813e-01 -4.059231e-01 -1.826408e+00 144 75 9
-3.669077e-01 -4.083604e-01 -1.872382e+00 111 56 3
-3.446177e-01 -4.024249e-01 -1.860154e+00 110 50 2
-3.446177e-01 -4.024249e-01 -1.860154e+00 110 50 2
-3.736089e-02 -4.099047e-01 -1.814095e+00 133 30 14
-3.736089e-02 -4.099047e-01 -1.814095e+00 133 30 14
-3.676294e-01 -4.037067e-01 -1.878725e+00 158 101 37
-3.670900e-01 -4.034153e-01 -1.877100e+00 158 101 37
-4.639423e-02 -4.154241e-01 -1.840926e+00 86 0 0
-3.588366e-01 -3.977716e-01 -1.868704e+00 114 54 4
-3.588587e-01 -3.978171e-01 -1.868996e+00 114 54 4
5.423981e-01 -4.272050e-01 -1.738443e+00 36 29 9
-1.234441e-02 -4.221494e-01 -1.868276e+00 135 40 23
-1.214569e-02 -4.218929e-01 -1.867442e+00 135 40 23
-2.839538e-01 -3.906685e-01 -1.840968e+00 96 33 0
-2.839618e-01 -3.909322e-01 -1.840597e+00 96 33 0
-2.856616e-01 -3.933099e-01 -1.848949e+00 96 33 0
-2.276105e-01 -3.905798e-01 -1.827492e+00 147 80 19
-2.089787e-02 -4.070322e-01 -1.837730e+00 88 0 0
-2.320422e-01 -3.827648e-01 -1.830699e+00 83 21 0
-2.331958e-01 -3.852197e-01 -1.838173e+00 83 21 0
-1.890661e-01 -3.836308e-01 -1.825876e+00 118 41 1
-2.280905e-01 -3.771102e-01 -1.830893e+00 146 79 16
-2.468709e-01 -3.763222e-01 -1.835129e+00 154 91 23
-2.468709e-01 -3.763222e-01 -1.835129e+00 154 91 23
-3.597438e-01 -3.687843e-01 -1.869998e+00 109 56 1
-3.594126e-01 -3.682915e-01 -1.868778e+00 109 56 1
-8.138615e-02 -3.649212e-01 -1.820226e+00 73 1 0
-8.070118e-02 -3.650338e-01 -1.824039e+00 73 1 0
-8.050937e-02 -3.678778e-01 -1.831231e+00 73 1 0
-3.218593e-01 -3.516492e-01 -1.853189e+00 105 35 0
-1.889496e-01 -3.542878e-01 -1.827444e+00 111 43 1
-5.979093e-02 -3.615865e-01 -1.822107e+00 66 2 1
-5.964552e-02 -3.618859e-01 -1.822948e+00 66 2 1
-2.521401e-01 -3.496543e-01 -1.836238e+00 104 34 0
-2.521401e-01 -3.496543e-01 -1.836238e+00 104 34 0
-3.294824e-01 -3.506012e-01 -1.858970e+00 104 46 1
-3.294824e-01 -3.506012e-01 -1.858970e+00 104 46 1
-7.590669e-02 -3.621328e-01 -1.830906e+00 138 39 22
-2.016886e-01 -3.510212e-01 -1.833313e+00 153 89 17
-2.020046e-01 -3.514199e-01 -1.835616e+00 153 89 17
-3.404342e-01 -3.486673e-01 -1.867005e+00 100 40 0
-3.383372e-01 -3.473701e-01 -1.860032e+00 100 40 0
-1.133069e-01 -3.531366e-01 -1.817717e+00 88 8 4
-1.131045e-01 -3.542073e-01 -1.823076e+00 88 8 4
-3.720482e-01 -3.483829e-01 -1.878886e+00 109 47 1
-3.383766e-01 -3.431263e-01 -1.868237e+00 154 94 23
-8.880662e-02 -3.512833e-01 -1.823598e+00 71 5 1
-1.008087e-01 -3.461488e-01 -1.820220e+00 146 48 16
-1.747878e-01 -3.397153e-01 -1.820787e+00 178 119 73
5.520410e-01 -3.954304e-01 -1.818957e+00 38 26 12
-5.023278e-02 -3.520511e-01 -1.842237e+00 72 3 3
-5.191892e-02 -3.483408e-01 -1.828837e+00 72 3 3
-2.503640e-01 -3.317591e-01 -1.825636e+00 99 31 1
-2.503640e-01 -3.317591e-01 -1.825636e+00 99 31 1
-2.008008e-01 -3.346675e-01 -1.826772e+00 159 94 25
-9.891060e-02 -3.391808e-01 -1.824129e+00 83 3 0
-6.591785e-02 -3.372470e-01 -1.806055e+00 135 37 20
-1.660781e-02 -3.464519e-01 -1.832083e+00 129 33 19
-1.660781e-02 -3.464519e-01 -1.832083e+00 129 33 19
-5.142320e-02 -3.487935e-01 -1.856404e+00 131 32 9
-5.182044e-02 -3.478448e-01 -1.855571e+00 131 32 9
-3.041164e-02 -3.443092e-01 -1.832572e+00 80 0 5
-3.041164e-02 -3.443092e-01 -1.832572e+00 80 0 5
-6.997045e-02 -3.410659e-01 -1.844072e+00 72 0 0
-6.990883e-02 -3.413297e-01 -1.845558e+00 72 0 0
-2.092672e-02 -3.413497e-01 -1.835623e+00 66 0 4
-1.768317e-02 -3.333899e-01 -1.808964e+00 76 5 6
-1.768317e-02 -3.333899e-01 -1.808964e+00 76 5 6
-1.443899e-01 -3.282170e-01 -1.830276e+00 143 35 4
-1.443899e-01 -3.282170e-01 -1.830276e+00 143 35 4
-1.879133e-01 -3.232594e-01 -1.824353e+00 123 56 4
-1.876899e-01 -3.227369e-01 -1.822295e+00 123 56 4
-1.879133e-01 -3.232594e-01 -1.824353e+00 123 56 4
7.834078e-04 -3.452732e-01 -1.870412e+00 78 1 5
-1.611672e-03 -3.291576e-01 -1.834014e+00 135 38 22
-1.227645e-03 -3.298825e-01 -1.837075e+00 135 38 22
-2.324852e-01 -3.072270e-01 -1.830028e+00 84 26 0
4.784690e-02 -3.286950e-01 -1.831356e+00 116 24 0
-2.076770e-01 -3.059677e-01 -1.837608e+00 156 97 21
-2.257570e-01 -3.011933e-01 -1.823489e+00 156 99 23
2.497230e-02 -3.184886e-01 -1.823860e+00 78 0 1
2.497230e-02 -3.184886e-01 -1.823860e+00 78 0 1
6.127159e-03 -3.182962e-01 -1.833366e+00 79 0 1
-2.471953e-01 -2.999666e-01 -1.835253e+00 158 99 23
2.197562e-02 -3.142634e-01 -1.825927e+00 129 38 21
2.223506e-02 -3.142438e-01 -1.826412e+00 129 38 21
-4.744128e-02 -3.072140e-01 -1.817212e+00 70 4 0
-4.704636e-02 -3.077422e-01 -1.819895e+00 70 4 0
-1.095243e-01 -3.005731e-01 -1.815371e+00 78 3 4
1.879585e-02 -3.112046e-01 -1.832475e+00 67 0 0
1.879585e-02 -3.112046e-01 -1.832475e+00 67 0 0
-2.969044e-02 -3.046398e-01 -1.820902e+00 67 3 1
-5.315634e-02 -3.069461e-01 -1.843983e+00 136 40 19
-4.517296e-02 -3.016187e-01 -1.824793e+00 133 40 24
-4.579399e-02 -3.007295e-01 -1.819714e+00 133 40 24
4.803158e-01 -3.378858e-01 -1.814356e+00 38 29 3
2.865634e-02 -3.061045e-01 -1.835461e+00 82 0 1
2.261570e-02 -3.008888e-01 -1.807872e+00 82 0 1
-1.059845e-02 -2.978030e-01 -1.817112e+00 77 0 0
-1.146667e-02 -2.970957e-01 -1.812978e+00 77 0 0
-8.395158e-02 -2.923194e-01 -1.818273e+00 137 39 14
-8.395158e-02 -2.923194e-01 -1.818273e+00 137 39 14
1.435933e-01 -3.139610e-01 -1.864138e+00 49 39 30
-6.670442e-02 -2.899713e-01 -1.816725e+00 141 37 21
-1.008566e-01 -2.856483e-01 -1.811472e+00 78 8 9
-1.008566e-01 -2.856483e-01 -1.811472e+00 78 8 9
-5.706037e-02 -2.868656e-01 -1.810587e+00 135 33 11
-5.706037e-02 -2.868656e-01 -1.810587e+00 135 33 11
-2.429688e-02 -2.911078e-01 -1.830391e+00 77 5 2
-2.703299e-02 -2.879845e-01 -1.811995e+00 77 5 2
-2.634156e-01 -2.720984e-01 -1.833957e+00 76 28 3
-1.282343e-02 -2.774018e-01 -1.816005e+00 136 33 12
-1.282343e-02 -2.774018e-01 -1.816005e+00 136 33 12
-3.013283e-03 -2.764456e-01 -1.825447e+00 132 38 14
-3.321712e-01 -2.604403e-01 -1.875316e+00 83 28 0
-3.288915e-01 -2.586608e-01 -1.861139e+00 83 28 0
2.737152e-02 -2.840440e-01 -1.878319e+00 74 2 0
2.737152e-02 -2.840440e-01 -1.878319e+00 74 2 0
-8.855428e-03 -2.684042e-01 -1.811731e+00 65 1 0
4.929103e-01 -3.130125e-01 -1.883381e+00 15 5 0
1.466916e-02 -2.694039e-01 -1.826156e+00 127 36 17
1.466916e-02 -2.694039e-01 -1.826156e+00 127 36 17
-8.961947e-02 -2.572960e-01 -1.817440e+00 137 29 1
-3.738769e-01 -2.363928e-01 -1.879650e+00 123 70 4
6.624307e-02 -2.545094e-01 -1.835923e+00 146 109 60
-1.867913e-01 -2.356115e-01 -1.824216e+00 78 12 0
-1.969288e-01 -2.331846e-01 -1.817522e+00 83 24 1
-1.969126e-01 -2.331538e-01 -1.816773e+00 83 24 1
2.400530e-01 -2.592358e-01 -1.813286e+00 40 34 22
-5.608267e-02 -2.258245e-01 -1.815438e+00 161 65 31
-5.612502e-02 -2.259169e-01 -1.815654e+00 161 65 31
-3.602971e-01 -2.089179e-01 -1.864130e+00 157 109 33
5.319714e-03 -2.290430e-01 -1.816959e+00 161 67 39
-1.331778e-01 -2.172336e-01 -1.815632e+00 179 90 53
-1.331241e-01 -2.173193e-01 -1.815808e+00 179 90 53
-8.018655e-02 -2.156726e-01 -1.812853e+00 165 72 38
-2.664469e-01 -1.953259e-01 -1.864571e+00 114 54 0
-3.675834e-01 -1.917583e-01 -1.877773e+00 163 119 41
-3.676168e-01 -1.917020e-01 -1.877626e+00 163 119 41
-2.100378e-01 -1.956038e-01 -1.829153e+00 151 103 25
-3.953413e-01 -1.828533e-01 -1.882268e+00 127 56 12
-8.248498e-02 -1.951364e-01 -1.808294e+00 174 121 76
-2.976686e-01 -1.757266e-01 -1.838707e+00 101 60 3
-2.980274e-01 -1.681159e-01 -1.842381e+00 155 105 25
-3.464261e-01 -1.658506e-01 -1.854092e+00 164 117 36
-3.226955e-01 -1.608329e-01 -1.858731e+00 148 100 21
4.734274e-02 -1.827092e-01 -1.844370e+00 163 78 41
-9.969228e-02 -1.727707e-01 -1.811659e+00 152 97 21
-3.229764e-02 -1.723513e-01 -1.815997e+00 84 29 5
-3.229764e-02 -1.723513e-01 -1.815997e+00 84 29 5
-5.830502e-02 -1.693579e-01 -1.832050e+00 148 88 22
-3.620303e-02 -1.652313e-01 -1.831780e+00 140 79 13
-3.085593e-01 -1.480477e-01 -1.855510e+00 159 107 24
-2.980857e-02 -1.635790e-01 -1.818786e+00 136 77 17
-3.050101e-02 -1.635106e-01 -1.815876e+00 136 77 17
-1.904304e-02 -1.610403e-01 -1.809828e+00 143 83 13
-1.910793e-02 -1.610620e-01 -1.809557e+00 143 83 13
-3.264652e-01 -1.422551e-01 -1.847790e+00 159 110 29
-1.383612e-02 -1.539190e-01 -1.838081e+00 81 18 5
-1.674524e-02 -1.537698e-01 -1.819084e+00 81 18 5
1.316941e-02 -1.543182e-01 -1.847072e+00 144 85 25
2.755233e-02 -1.534692e-01 -1.824913e+00 78 17 0
2.755233e-02 -1.534692e-01 -1.824913e+00 78 17 0
1.800829e-02 -1.503415e-01 -1.818981e+00 132 73 14
1.800829e-02 -1.503415e-01 -1.818981e+00 132 73 14
-3.462870e-01 -1.271763e-01 -1.851340e+00 120 79 5
9.925465e-03 -1.471345e-01 -1.844866e+00 75 19 4
2.739063e-02 -1.469627e-01 -1.824795e+00 136 75 19
2.746162e-02 -1.468613e-01 -1.825511e+00 136 75 19
-3.543443e-01 -1.155813e-01 -1.854235e+00 157 106 32
-7.241416e-02 -1.308307e-01 -1.810819e+00 147 86 19
-5.599800e-02 -1.279856e-01 -1.811818e+00 142 83 7
-5.578644e-02 -1.279139e-01 -1.813122e+00 142 83 7
-1.679914e-01 -1.211550e-01 -1.807623e+00 185 117 62
-2.947546e-01 -1.109912e-01 -1.829392e+00 90 39 0
-3.391797e-01 -1.046482e-01 -1.848009e+00 160 112 36
-3.136707e-01 -1.046589e-01 -1.835682e+00 93 45 0
-3.134825e-01 -1.062051e-01 -1.834577e+00 93 45 0
-3.476336e-01 -1.015680e-01 -1.853324e+00 164 117 40
-3.470647e-01 -1.020391e-01 -1.850440e+00 164 117 40
-1.831437e-01 -1.099491e-01 -1.820122e+00 65 0 1
-1.831437e-01 -1.099491e-01 -1.820122e+00 65 0 1
-2.075231e-01 -9.524216e-02 -1.809799e+00 173 121 49
-2.546913e-01 -8.428460e-02 -1.814921e+00 144 43 9
-2.664319e-01 -8.131580e-02 -1.829660e+00 144 44 10
1.225149e-02 -9.766653e-02 -1.805483e+00 151 98 23
3.129812e-02 -9.164381e-02 -1.823496e+00 157 103 34
-3.391580e-01 -6.832094e-02 -1.848698e+00 178 134 74
-3.435472e-01 -6.416808e-02 -1.846345e+00 180 133 66
-3.516368e-01 -6.300890e-02 -1.868631e+00 180 133 66
-3.295492e-01 -6.608644e-02 -1.839243e+00 147 49 17
-3.587625e-01 -6.107188e-02 -1.850133e+00 180 129 69
-3.493818e-01 -5.841477e-02 -1.851560e+00 147 50 15
-3.573127e-01 -5.522958e-02 -1.852315e+00 148 57 15
-3.651308e-01 -5.095541e-02 -1.852341e+00 146 61 16
-3.651308e-01 -5.095541e-02 -1.852341e+00 146 61 16
-1.051171e-01 -6.378652e-02 -1.801180e+00 170 119 42
-9.575873e-02 -6.332704e-02 -1.801780e+00 176 126 57
-7.531047e-02 -6.030174e-02 -1.808108e+00 177 130 68
3.720600e-02 -3.554280e-02 -1.807021e+00 177 124 61
7.863157e-02 3.513699e-02 -1.830540e+00 134 23 0
-4.152922e-01 1.203688e-01 -1.919275e+00 222 197 160
-8.568286e-02 1.947943e-01 -1.857629e+00 60 47 65
-3.327320e-02 1.889562e-01 -1.839122e+00 55 40 56
-6.085336e-02 2.043414e-01 -1.869284e+00 57 44 63
-9.164871e-02 2.080459e-01 -1.868403e+00 56 44 63
-4.733656e-03 1.957602e-01 -1.845933e+00 53 36 42
-4.725222e-03 1.951184e-01 -1.843908e+00 53 36 42
-2.859327e-03 2.019355e-01 -1.858775e+00 53 36 42
-6.269949e-02 1.982645e-01 -1.843222e+00 119 105 97
-6.269949e-02 1.982645e-01 -1.843222e+00 119 105 97
6.872973e-02 1.911701e-01 -1.829428e+00 121 106 108
-1.124366e-01 2.189826e-01 -1.878605e+00 114 100 99
-1.129257e-01 2.120355e-01 -1.863098e+00 114 100 99
8.271186e-02 1.975405e-01 -1.843808e+00 34 20 28
8.252574e-02 1.962043e-01 -1.839514e+00 34 20 28
-3.660116e-01 2.816186e-01 -1.939137e+00 100 86 91
2.760097e-01 -7.958248e-01 -1.663504e+00 103 87 60
5.578276e-01 -8.106206e-01 -1.671569e+00 39 33 10
2.654765e-01 -7.394082e-01 -1.653960e+00 44 44 34
6.770729e-01 -7.892604e-01 -1.674390e+00 32 29 0
-4.053663e-01 -7.198792e-01 -1.762596e+00 133 154 99
-4.015785e-01 -7.125475e-01 -1.754231e+00 133 154 99
-3.723431e-01 -6.962850e-01 -1.749200e+00 64 92 44
-3.674199e-01 -7.026779e-01 -1.757775e+00 58 77 29
-4.427694e-01 -6.945854e-01 -1.763225e+00 215 227 165
-4.276099e-01 -6.915713e-01 -1.759200e+00 24 106 19
-4.265688e-01 -6.818126e-01 -1.747955e+00 158 219 137
-4.251890e-01 -6.878589e-01 -1.760394e+00 74 161 68
2.734547e-01 -6.726523e-01 -1.650263e+00 69 68 51
2.737120e-01 -6.727907e-01 -1.650532e+00 69 68 51
-3.237515e-01 -6.990119e-01 -1.773800e+00 62 78 20
-3.237515e-01 -6.990119e-01 -1.773800e+00 62 78 20
2.937640e-01 -6.798369e-01 -1.674298e+00 34 31 16
3.047144e-01 -6.667929e-01 -1.658253e+00 84 81 74
2.786795e-01 -6.563942e-01 -1.651441e+00 98 94 67
3.258592e-01 -6.064829e-01 -1.651508e+00 72 70 58
3.250554e-01 -6.055839e-01 -1.650416e+00 72 70 58
-2.114374e-01 -6.011943e-01 -1.737443e+00 63 83 15
2.849627e-01 -5.924723e-01 -1.668886e+00 88 86 73
2.544815e-01 -5.825506e-01 -1.670097e+00 22 19 10
2.608983e-01 -5.884982e-01 -1.684201e+00 78 75 59
-1.453566e-01 -5.426455e-01 -1.684453e+00 136 223 128
-1.475844e-01 -5.911740e-01 -1.760337e+00 136 223 128
2.464432e-01 -5.826913e-01 -1.684596e+00 64 62 47
2.430306e-01 -5.861956e-01 -1.693147e+00 77 75 62
-1.207852e-01 -5.814351e-01 -1.753789e+00 46 93 40
2.014202e-01 -5.792078e-01 -1.707856e+00 15 13 2
-1.490078e-01 -5.664018e-01 -1.753269e+00 205 195 160
6.655347e-01 -5.704197e-01 -1.658809e+00 70 63 53
4.788710e-02 -5.549017e-01 -1.749480e+00 52 73 11
-4.797641e-02 -5.479736e-01 -1.755951e+00 53 144 46
-4.224365e-02 -5.375631e-01 -1.744614e+00 97 170 81
-4.158521e-02 -5.355554e-01 -1.756009e+00 206 222 179
7.851280e-02 -5.407604e-01 -1.744324e+00 36 47 5
7.786536e-02 -5.393602e-01 -1.741882e+00 36 47 5
-3.275567e-02 -5.335915e-01 -1.760127e+00 58 87 35
2.380983e-01 -5.258416e-01 -1.705843e+00 51 48 41
3.601122e-02 -5.220171e-01 -1.744073e+00 61 75 14
-4.402841e-03 -5.138666e-01 -1.743974e+00 54 96 44
1.146199e-02 -5.164583e-01 -1.749325e+00 23 67 14
1.270626e-01 -5.210100e-01 -1.739877e+00 15 31 1
1.499829e-02 -5.105169e-01 -1.749516e+00 50 94 30
5.751444e-02 -5.018331e-01 -1.766797e+00 109 99 52
1.302876e-01 -4.907939e-01 -1.745785e+00 52 98 35
1.349079e-01 -4.844842e-01 -1.738041e+00 59 77 20
1.078833e-01 -4.760385e-01 -1.737784e+00 27 75 19
6.323158e-01 -5.063971e-01 -1.701890e+00 211 196 157
1.387921e-01 -4.708580e-01 -1.731256e+00 93 176 76
1.191895e-01 -4.629176e-01 -1.719138e+00 18 74 1
1.892592e-01 -4.761199e-01 -1.738770e+00 41 85 17
-2.559328e-01 -4.760366e-01 -1.841240e+00 183 118 71
-2.704022e-01 -4.717070e-01 -1.838701e+00 182 122 74
1.563492e-01 -4.567708e-01 -1.733914e+00 24 76 22
-2.239686e-01 -4.674862e-01 -1.842727e+00 92 24 1
-2.059909e-01 -4.658518e-01 -1.839525e+00 96 30 0
-1.002779e-01 -4.710022e-01 -1.837247e+00 95 3 0
1.788611e-01 -4.467643e-01 -1.725086e+00 14 79 3
-2.491513e-01 -4.609969e-01 -1.851211e+00 157 96 39
-2.489969e-01 -4.590466e-01 -1.846329e+00 157 96 39
-3.407305e-01 -4.536310e-01 -1.858493e+00 186 125 77
4.246216e-02 -4.819742e-01 -1.858837e+00 81 34 6
2.336239e-01 -4.475526e-01 -1.732722e+00 64 82 19
2.336005e-01 -4.476272e-01 -1.732757e+00 64 82 19
-6.858684e-02 -4.583117e-01 -1.829057e+00 92 1 3
-8.033603e-02 -4.552792e-01 -1.824565e+00 140 41 28
-7.042471e-02 -4.659492e-01 -1.857160e+00 142 45 27
-7.004838e-02 -4.663989e-01 -1.857144e+00 142 45 27
2.328331e-01 -4.350191e-01 -1.726258e+00 187 188 115
-2.391555e-01 -4.329440e-01 -1.843229e+00 97 30 2
-1.898439e-01 -4.301104e-01 -1.832863e+00 115 48 0
-2.393938e-01 -4.258475e-01 -1.837126e+00 101 32 2
2.398771e-01 -4.267615e-01 -1.730108e+00 202 189 129
2.407991e-01 -4.272001e-01 -1.731263e+00 202 189 129
-2.529416e-01 -4.236571e-01 -1.848160e+00 154 88 20
-3.717054e-01 -4.209701e-01 -1.876075e+00 116 57 2
5.734649e-01 -4.499675e-01 -1.735440e+00 53 44 10
-3.284425e-01 -4.175822e-01 -1.859569e+00 161 95 32
-1.902452e-01 -4.167101e-01 -1.836497e+00 116 46 0
-1.902966e-01 -4.166181e-01 -1.836438e+00 116 46 0
5.613560e-01 -4.399161e-01 -1.724151e+00 209 194 150
-2.384763e-01 -4.109022e-01 -1.834436e+00 80 12 0
-2.385530e-01 -4.109114e-01 -1.834136e+00 80 12 0
-2.028625e-01 -4.091898e-01 -1.830287e+00 151 86 28
-2.030658e-01 -4.100786e-01 -1.832676e+00 151 86 28
-3.296701e-01 -4.026404e-01 -1.857880e+00 154 92 28
-3.734087e-01 -4.046796e-01 -1.879945e+00 121 61 5
-2.392896e-01 -4.011884e-01 -1.839996e+00 83 18 2
-2.383530e-01 -3.992260e-01 -1.833965e+00 83 18 2
-1.895399e-01 -3.996853e-01 -1.829107e+00 122 50 0
3.321301e-01 -4.095561e-01 -1.733821e+00 51 42 14
-4.937515e-02 -4.066527e-01 -1.821932e+00 92 2 1
3.414872e-01 -4.057396e-01 -1.724239e+00 122 116 96
3.350658e-01 -4.023236e-01 -1.715442e+00 122 116 96
3.429512e-01 -4.100164e-01 -1.739566e+00 38 31 6
-2.027428e-01 -3.952683e-01 -1.832892e+00 153 87 28
-3.548136e-01 -3.915779e-01 -1.864006e+00 162 101 36
3.408265e-01 -4.130143e-01 -1.752078e+00 80 75 55
3.381248e-01 -4.113668e-01 -1.748678e+00 80 75 55
3.499899e-01 -4.080933e-01 -1.739756e+00 29 22 5
-2.224899e-01 -3.896049e-01 -1.830634e+00 80 14 1
-3.733645e-01 -3.875988e-01 -1.866686e+00 180 117 62
-3.729693e-01 -3.875007e-01 -1.865216e+00 180 117 62
-1.986429e-01 -3.901124e-01 -1.830673e+00 94 23 3
-1.986299e-01 -3.894940e-01 -1.829357e+00 94 23 3
-3.633934e-01 -3.861584e-01 -1.865160e+00 156 103 36
-3.209251e-01 -3.815854e-01 -1.851677e+00 99 37 0
-2.035065e-01 -3.843015e-01 -1.843752e+00 145 79 23
-3.381935e-01 -3.775242e-01 -1.860620e+00 98 36 0
-3.372260e-01 -3.762635e-01 -1.857059e+00 98 36 0
-2.234858e-01 -3.772086e-01 -1.839740e+00 81 11 1
-3.706719e-01 -3.719070e-01 -1.870516e+00 114 56 1
-3.344673e-01 -3.706359e-01 -1.856157e+00 160 97 30
-3.664496e-01 -3.694823e-01 -1.869191e+00 161 102 43
-2.458887e-01 -3.661242e-01 -1.832630e+00 158 97 35
-2.458887e-01 -3.661242e-01 -1.832630e+00 158 97 35
-3.464858e-01 -3.667601e-01 -1.862791e+00 162 100 32
-2.520060e-01 -3.631179e-01 -1.833799e+00 109 35 6
-2.520060e-01 -3.631179e-01 -1.833799e+00 109 35 6
-3.552488e-01 -3.642967e-01 -1.868650e+00 159 101 36
-2.026433e-01 -3.643578e-01 -1.830880e+00 147 83 20
-2.429772e-01 -3.503925e-01 -1.836386e+00 105 39 3
-4.023972e-02 -3.600614e-01 -1.826837e+00 88 0 0
-3.236972e-01 -3.450229e-01 -1.853060e+00 157 91 23
-8.118223e-02 -3.543599e-01 -1.820037e+00 79 1 0
-3.457527e-01 -3.437392e-01 -1.863778e+00 108 52 1
-3.455682e-01 -3.436068e-01 -1.863169e+00 108 52 1
-5.984119e-02 -3.548042e-01 -1.822638e+00 139 40 18
-1.715458e-01 -3.446762e-01 -1.824924e+00 127 42 4
5.188432e-02 -3.673003e-01 -1.847518e+00 131 77 60
-3.566402e-01 -3.381670e-01 -1.865923e+00 105 49 1
-3.570910e-01 -3.384328e-01 -1.866934e+00 105 49 1
-3.432588e-01 -3.352321e-01 -1.855726e+00 162 96 28
-2.463897e-01 -3.360780e-01 -1.834411e+00 161 98 43
-2.464157e-01 -3.361803e-01 -1.834704e+00 161 98 43
-3.644785e-01 -3.351738e-01 -1.868732e+00 109 53 4
-1.110853e-01 -3.420051e-01 -1.821436e+00 85 3 0
-1.110853e-01 -3.420051e-01 -1.821436e+00 85 3 0
-3.703720e-01 -3.288975e-01 -1.870043e+00 111 52 4
-3.620155e-01 -3.281821e-01 -1.864456e+00 166 108 38
4.616052e-01 -3.619740e-01 -1.749433e+00 87 87 69
-4.834441e-03 -3.527143e-01 -1.866566e+00 132 38 22
-1.298264e-01 -3.310929e-01 -1.824759e+00 126 31 1
-2.420220e-01 -3.231005e-01 -1.833960e+00 83 17 0
-2.420220e-01 -3.231005e-01 -1.833960e+00 83 17 0
-2.527504e-01 -3.237931e-01 -1.841248e+00 98 34 6
-1.252378e-01 -3.277568e-01 -1.823374e+00 183 98 61
-1.611259e-01 -3.269068e-01 -1.830173e+00 138 40 5
-2.465210e-01 -3.203879e-01 -1.832067e+00 160 100 37
-2.467283e-01 -3.206459e-01 -1.833248e+00 160 100 37
-2.620173e-01 -3.193828e-01 -1.836671e+00 162 96 27
-2.008699e-01 -3.172104e-01 -1.819751e+00 151 91 20
-2.010558e-01 -3.180404e-01 -1.823492e+00 151 91 20
-3.596223e-02 -3.292374e-01 -1.819078e+00 76 0 0
2.684809e-03 -3.349308e-01 -1.835847e+00 88 0 2
2.685633e-03 -3.350074e-01 -1.835973e+00 88 0 2
-2.039754e-01 -3.109103e-01 -1.826343e+00 81 18 0
-2.043411e-01 -3.129846e-01 -1.834651e+00 81 18 0
-2.527780e-01 -3.097557e-01 -1.843932e+00 101 37 3
6.980339e-02 -3.379799e-01 -1.861986e+00 140 119 74
-2.556593e-01 -3.064951e-01 -1.832871e+00 158 94 23
-2.471058e-01 -3.067707e-01 -1.839087e+00 164 106 34
-2.513086e-01 -3.017046e-01 -1.827665e+00 107 41 1
-2.520428e-01 -3.026001e-01 -1.833047e+00 107 41 1
-1.997796e-01 -3.015176e-01 -1.818070e+00 153 96 25
-3.734853e-01 -2.971998e-01 -1.864896e+00 187 120 64
-3.731819e-01 -2.970424e-01 -1.863698e+00 187 120 64
-2.219499e-01 -2.992257e-01 -1.831138e+00 83 21 1
-5.585714e-02 -3.057917e-01 -1.805390e+00 68 1 2
2.690522e-02 -3.138712e-01 -1.823608e+00 92 2 0
2.880840e-02 -3.154654e-01 -1.832802e+00 92 2 0
-8.261565e-02 -3.031795e-01 -1.814823e+00 77 0 1
-2.071446e-01 -2.938052e-01 -1.825320e+00 158 99 27
-2.117255e-01 -2.927300e-01 -1.826470e+00 114 51 0
4.515871e-01 -3.345822e-01 -1.786023e+00 65 58 42
-1.877656e-01 -2.950524e-01 -1.833698e+00 120 54 0
-5.085492e-02 -2.996026e-01 -1.822684e+00 78 0 0
-6.164755e-02 -2.994179e-01 -1.824142e+00 76 0 0
-9.230193e-02 -2.915127e-01 -1.813079e+00 140 52 27
-9.198621e-02 -2.922178e-01 -1.816781e+00 140 52 27
1.228964e-01 -3.091495e-01 -1.827844e+00 45 35 25
4.597748e-01 -3.257358e-01 -1.791890e+00 213 199 157
-6.178773e-02 -2.928614e-01 -1.820035e+00 86 0 0
-3.920601e-01 -2.773794e-01 -1.872802e+00 128 61 16
-2.309414e-02 -2.942676e-01 -1.820812e+00 135 47 31
4.650282e-01 -3.269837e-01 -1.806481e+00 47 35 14
6.723137e-02 -3.018600e-01 -1.842767e+00 154 130 85
-5.023522e-02 -2.863668e-01 -1.812472e+00 141 41 27
4.661352e-01 -3.216763e-01 -1.809699e+00 215 200 151
4.520968e-01 -3.182346e-01 -1.799852e+00 58 47 22
-5.438186e-02 -2.829762e-01 -1.829029e+00 67 0 3
-7.493080e-02 -2.802518e-01 -1.819973e+00 88 5 2
4.697048e-01 -3.193552e-01 -1.826921e+00 45 34 14
-3.936521e-01 -2.655828e-01 -1.879815e+00 133 63 21
-3.164856e-01 -2.634000e-01 -1.867012e+00 169 111 40
1.051458e-02 -2.723444e-01 -1.830553e+00 131 41 28
2.036765e-02 -2.795742e-01 -1.875656e+00 131 41 28
-1.871478e-01 -2.569997e-01 -1.823660e+00 74 14 2
-1.869243e-01 -2.563737e-01 -1.819948e+00 74 14 2
4.677903e-01 -3.042114e-01 -1.842645e+00 219 205 159
-1.825124e-01 -2.551363e-01 -1.819749e+00 164 114 32
4.498773e-01 -3.007802e-01 -1.842510e+00 59 48 31
-1.930289e-01 -2.512440e-01 -1.822392e+00 169 122 55
2.289154e-02 -2.671357e-01 -1.833671e+00 130 36 24
2.289154e-02 -2.671357e-01 -1.833671e+00 130 36 24
-2.024775e-01 -2.513675e-01 -1.832251e+00 165 117 52
-2.020993e-01 -2.508044e-01 -1.827265e+00 165 117 52
-5.242030e-02 -2.559700e-01 -1.804245e+00 155 62 31
-5.102863e-02 -2.574164e-01 -1.814520e+00 155 62 31
-2.078540e-01 -2.466489e-01 -1.823761e+00 99 42 3
-1.069607e-01 -2.497283e-01 -1.804986e+00 174 78 42
-1.069607e-01 -2.497283e-01 -1.804986e+00 174 78 42
-1.871275e-01 -2.417672e-01 -1.827841e+00 72 3 0
-2.027868e-01 -2.351070e-01 -1.826700e+00 168 112 51
-2.025385e-01 -2.349244e-01 -1.823900e+00 168 112 51
-9.983098e-03 -2.473987e-01 -1.819675e+00 156 59 34
-2.074478e-01 -2.324772e-01 -1.829057e+00 92 27 7
2.211762e-01 -2.585548e-01 -1.801203e+00 218 204 177
-3.989652e-01 -2.202896e-01 -1.883717e+00 138 76 32
-1.860131e-01 -2.252515e-01 -1.820751e+00 72 14 2
-1.858135e-01 -2.251462e-01 -1.817997e+00 72 14 2
-3.592910e-01 -2.174129e-01 -1.891716e+00 161 112 41
-2.025976e-01 -2.188278e-01 -1.824410e+00 165 116 46
-2.025976e-01 -2.188278e-01 -1.824410e+00 165 116 46
-2.352931e-01 -2.170444e-01 -1.829836e+00 83 39 0
-7.330787e-02 -2.226376e-01 -1.811679e+00 128 29 0
-2.913878e-01 -2.094382e-01 -1.855274e+00 92 47 0
-1.012283e-01 -2.170259e-01 -1.819352e+00 135 37 2
1.672851e-02 -2.239440e-01 -1.814033e+00 155 55 32
-1.854814e-01 -2.102642e-01 -1.825899e+00 101 33 1
-1.106197e-01 -2.121241e-01 -1.807414e+00 144 41 6
-2.054865e-01 -2.045309e-01 -1.822812e+00 96 33 1
3.773014e-02 -2.202912e-01 -1.823741e+00 125 25 0
-2.011604e-01 -2.035205e-01 -1.821579e+00 158 101 28
-7.315534e-02 -2.109834e-01 -1.806859e+00 179 78 46
-3.194234e-01 -1.954251e-01 -1.846160e+00 108 56 6
-3.178057e-01 -1.951330e-01 -1.839708e+00 108 56 6
-3.996367e-01 -1.926421e-01 -1.883550e+00 135 73 26
3.026053e-01 -2.332577e-01 -1.825448e+00 217 204 179
-2.142308e-01 -2.009122e-01 -1.831203e+00 115 56 2
-3.683129e-01 -1.904198e-01 -1.856992e+00 122 73 3
-3.331742e-01 -1.906696e-01 -1.847820e+00 104 57 5
-1.848928e-01 -1.945512e-01 -1.820989e+00 70 12 0
-1.850073e-01 -1.944902e-01 -1.821710e+00 70 12 0
1.586973e-02 -2.057494e-01 -1.817395e+00 154 56 32
-8.774505e-02 -1.989180e-01 -1.806795e+00 135 39 7
-1.194714e-01 -1.975691e-01 -1.820475e+00 175 111 58
6.219535e-02 -2.091388e-01 -1.827490e+00 178 115 72
-8.971557e-03 -1.997829e-01 -1.803258e+00 160 69 40
-6.755885e-03 -2.005513e-01 -1.815291e+00 160 69 40
-3.744872e-01 -1.787204e-01 -1.862966e+00 186 132 74
-3.744872e-01 -1.787204e-01 -1.862966e+00 186 132 74
-1.964036e-01 -1.855329e-01 -1.821935e+00 93 37 2
-1.964835e-01 -1.855044e-01 -1.819956e+00 93 37 2
-3.024382e-01 -1.785029e-01 -1.836891e+00 155 111 41
-1.403113e-01 -1.874671e-01 -1.810908e+00 189 119 57
-3.952215e-01 -1.708546e-01 -1.867476e+00 170 107 61
-9.331928e-02 -1.854478e-01 -1.814418e+00 150 87 18
2.483984e-02 -1.919317e-01 -1.829166e+00 158 65 40
6.604650e-02 -1.919185e-01 -1.837702e+00 187 125 81
-9.141585e-02 -1.802765e-01 -1.813518e+00 74 14 11
-1.079714e-01 -1.793170e-01 -1.808923e+00 154 99 35
-8.664304e-02 -1.789770e-01 -1.811252e+00 157 99 26
-5.356662e-02 -1.802702e-01 -1.815175e+00 142 83 29
-5.356662e-02 -1.802702e-01 -1.815175e+00 142 83 29
-8.078965e-02 -1.777458e-01 -1.811175e+00 88 15 1
-8.102076e-02 -1.777282e-01 -1.808265e+00 88 15 1
-7.091626e-02 -1.767982e-01 -1.805598e+00 72 12 1
-3.407818e-01 -1.610237e-01 -1.849479e+00 104 63 9
-2.707899e-01 -1.636833e-01 -1.834337e+00 112 55 3
-3.150867e-01 -1.587530e-01 -1.846379e+00 103 47 1
-9.424406e-02 -1.713517e-01 -1.808569e+00 149 91 25
-1.073881e-01 -1.657336e-01 -1.813230e+00 163 108 51
-1.073881e-01 -1.658937e-01 -1.813570e+00 163 108 51
-1.905144e-01 -1.572606e-01 -1.824697e+00 165 113 33
-1.903143e-01 -1.573372e-01 -1.822011e+00 165 113 33
-5.568514e-02 -1.650428e-01 -1.807993e+00 76 14 1
-7.969973e-02 -1.632823e-01 -1.810772e+00 94 16 0
-7.963129e-02 -1.632165e-01 -1.811459e+00 94 16 0
-7.439090e-02 -1.629869e-01 -1.811938e+00 154 92 31
-1.990421e-01 -1.554987e-01 -1.821294e+00 167 113 36
-1.993962e-01 -1.556853e-01 -1.823913e+00 167 113 36
3.781083e-02 -1.676023e-01 -1.827444e+00 127 28 0
-3.413296e-01 -1.443236e-01 -1.848284e+00 120 65 1
-3.403533e-01 -1.439851e-01 -1.844474e+00 120 65 1
-3.102834e-01 -1.451090e-01 -1.826378e+00 167 116 36
1.076438e-02 -1.607445e-01 -1.852078e+00 84 24 2
1.085866e-02 -1.610817e-01 -1.850504e+00 84 24 2
-1.834316e-01 -1.468780e-01 -1.820265e+00 73 4 0
-1.831249e-01 -1.469685e-01 -1.815316e+00 73 4 0
-1.285658e-02 -1.544801e-01 -1.813234e+00 152 90 37
-3.384925e-01 -1.347367e-01 -1.856176e+00 118 71 0
-8.069291e-03 -1.530080e-01 -1.813893e+00 88 25 0
-1.936572e-01 -1.328430e-01 -1.815267e+00 163 106 30
-2.038638e-01 -1.320145e-01 -1.820931e+00 155 104 23
4.557058e-02 -1.425101e-01 -1.849683e+00 159 102 43
-1.906536e-01 -1.277845e-01 -1.814004e+00 85 33 0
-2.037973e-01 -1.259003e-01 -1.814674e+00 68 9 1
-2.084523e-01 -1.251760e-01 -1.817143e+00 167 117 44
5.438508e-02 -1.385125e-01 -1.830487e+00 105 53 1
2.889344e-02 -1.380914e-01 -1.820679e+00 89 28 1
-2.580029e-01 -1.206921e-01 -1.834686e+00 91 34 4
-9.756686e-02 -1.308044e-01 -1.801390e+00 150 92 25
-2.013661e-01 -1.203539e-01 -1.821690e+00 154 98 29
-3.063097e-01 -1.127335e-01 -1.845014e+00 93 41 0
-3.086698e-01 -1.132582e-01 -1.837296e+00 158 105 34
-1.643146e-01 -1.175855e-01 -1.814528e+00 133 39 2
-3.741976e-01 -9.824402e-02 -1.858908e+00 177 117 53
-3.741976e-01 -9.824402e-02 -1.858908e+00 177 117 53
-3.548897e-01 -9.800225e-02 -1.863575e+00 153 109 36
-3.944671e-01 -9.296240e-02 -1.872410e+00 133 68 23
1.304562e-02 -1.125968e-01 -1.807923e+00 153 100 32
1.441706e-02 -1.118563e-01 -1.815317e+00 153 100 32
-1.699661e-01 -9.837175e-02 -1.811226e+00 175 97 39
-3.755830e-01 -8.252589e-02 -1.865992e+00 179 119 57
-3.779443e-01 -8.224962e-02 -1.874271e+00 179 119 57
-2.486104e-01 -8.876389e-02 -1.830759e+00 175 116 48
-2.499552e-01 -9.009082e-02 -1.810711e+00 172 117 50
-2.671759e-01 -8.738388e-02 -1.822124e+00 174 120 51
-2.124053e-01 -8.933981e-02 -1.826304e+00 139 36 0
-7.327926e-02 -9.589521e-02 -1.800985e+00 145 90 17
-1.237297e-01 -8.791724e-02 -1.808204e+00 75 11 1
4.611085e-02 -9.336017e-02 -1.819854e+00 108 54 1
-3.243214e-02 -8.577257e-02 -1.820518e+00 150 92 37
-1.374858e-01 -8.070244e-02 -1.807437e+00 181 118 53
-3.698316e-02 -8.237137e-02 -1.809181e+00 66 9 4
-2.046005e-02 -8.008528e-02 -1.822977e+00 152 104 45
-1.277077e-01 -7.701329e-02 -1.802083e+00 63 2 0
-9.284327e-02 -7.393677e-02 -1.813146e+00 69 7 0
-1.078088e-01 -7.167182e-02 -1.814961e+00 157 103 36
-1.086645e-01 -7.376164e-02 -1.801325e+00 157 103 36
-9.819500e-02 -7.088499e-02 -1.800929e+00 158 104 44
