ply
format ascii 1.0
element face 0
property list uchar int vertex_indices
element vertex 931
property float x
property float y
property float z
property uchar diffuse_red
property uchar diffuse_green
property uchar diffuse_blue
end_header
4.696240e-01 -3.932948e-01 -1.731013e+00 71 68 59
6.224867e-02 -1.303258e-01 -1.888485e+00 163 112 57
4.855052e-02 -1.268972e-01 -1.875674e+00 87 28 0
8.597987e-02 -1.210104e-01 -1.897469e+00 129 78 21
1.790150e-01 -4.295427e-01 -1.707533e+00 13 29 2
4.692017e-01 -3.735765e-01 -1.725620e+00 101 99 86
-1.841824e-01 -1.822647e-01 -1.819358e+00 168 82 47
6.169418e-02 3.537260e-02 -1.828776e+00 189 140 95
-1.597726e-01 -5.909047e-01 -1.789218e+00 20 84 22
-1.973397e+00 5.479603e-01 -2.687403e+00 49 58 58
-3.032568e-01 -6.633427e-01 -1.836123e+00 20 78 25
6.550283e-01 -5.173390e-01 -1.574394e+00 178 164 126
-6.996818e-02 -1.107266e-01 -1.778256e+00 70 26 1
-2.140579e+00 7.725485e-01 -2.948170e+00 117 106 81
9.483821e-02 -5.299841e-01 -1.734916e+00 101 97 57
-2.495102e-01 -4.176124e-01 -1.869322e+00 89 24 0
-3.478973e-01 -1.782343e-01 -1.854483e+00 95 52 18
6.595847e-01 -5.341453e-01 -1.565625e+00 58 53 22
-1.647046e-01 -9.787074e-02 -1.772809e+00 122 68 19
-1.859094e-01 -5.691661e-01 -1.736756e+00 181 175 138
2.397218e-01 -4.859186e-01 -1.650639e+00 78 76 63
1.472912e-01 -4.469263e-01 -1.680660e+00 46 82 25
1.639708e-01 -4.414025e-01 -1.706075e+00 18 52 1
2.034448e-01 -4.274997e-01 -1.679518e+00 170 192 138
-8.026787e-02 -2.899544e-01 -1.822777e+00 87 3 5
-2.704712e-01 -2.797758e-01 -1.848331e+00 77 19 4
3.755282e-01 -1.928088e-01 -1.850047e+00 81 75 58
-2.851566e-01 -1.721755e-02 -1.767018e+00 227 144 102
3.577028e-02 2.294413e-01 -1.767208e+00 126 115 96
-2.202837e+00 7.899102e-01 -3.022707e+00 52 46 36
-3.236136e-01 -7.163880e-01 -1.838893e+00 46 83 33
6.849860e-01 -6.282076e-01 -1.582059e+00 160 147 105
-2.105418e+00 7.438730e-01 -2.887440e+00 129 117 91
-2.003767e+00 8.089935e-01 -2.909926e+00 119 112 87
-2.028595e+00 7.404358e-01 -2.893165e+00 133 122 98
-2.141894e+00 8.053204e-01 -3.003120e+00 95 83 57
-2.050504e+00 7.580714e-01 -2.896433e+00 130 119 92
6.744507e-01 -7.309638e-01 -1.603746e+00 26 21 0
4.781918e-02 -4.706868e-01 -1.710544e+00 84 85 51
-2.948323e-01 -9.372878e-02 -1.838300e+00 151 100 38
-3.204909e-01 -1.552765e-01 -1.822838e+00 144 96 41
-1.779199e+00 7.315957e-01 -2.736621e+00 44 63 69
2.184223e-01 -5.749467e-01 -1.669890e+00 78 78 66
-1.708500e-01 3.652569e-02 -1.771707e+00 96 89 93
-3.102778e-01 -4.466901e-01 -1.891105e+00 141 80 33
-3.766913e-01 -4.199995e-01 -1.883179e+00 119 41 9
-3.768307e-01 -4.204858e-01 -1.885204e+00 119 41 9
3.440419e-01 -3.727027e-01 -1.681969e+00 53 50 41
-3.175056e-01 -1.530156e-01 -1.827869e+00 102 49 0
-1.604581e-01 -3.520498e-01 -1.842807e+00 164 74 47
-2.152193e-01 -1.938567e-01 -1.809986e+00 152 105 45
-3.275697e-01 -1.281412e-01 -1.824443e+00 136 85 29
4.570272e-01 -5.189902e-01 -1.593824e+00 65 58 49
-1.246498e-01 -3.507220e-01 -1.838201e+00 81 2 2
-1.332263e-01 -3.335519e-01 -1.836024e+00 169 83 56
-1.021754e-01 -1.298324e-01 -1.781285e+00 132 72 24
-3.341112e-01 -6.872555e-01 -1.863497e+00 30 94 34
4.608945e-01 -4.954125e-01 -1.564930e+00 78 76 55
-2.219013e-02 -3.412087e-01 -1.849995e+00 130 34 12
-1.650882e-01 2.153761e-01 -1.791829e+00 111 97 98
-1.650882e-01 2.153761e-01 -1.791829e+00 111 97 98
-4.390188e-01 -4.864634e-02 -1.894003e+00 148 115 64
-1.421917e-01 3.274741e-01 -1.859221e+00 26 22 39
5.074226e-01 -4.276772e-01 -1.567735e+00 48 42 27
-1.809774e-01 -2.476501e-01 -1.816678e+00 183 97 60
-2.370863e-01 2.715713e-01 -1.808955e+00 82 72 72
-8.160255e-02 -1.721562e-01 -1.798233e+00 85 38 10
-2.376623e-01 -3.094442e-01 -1.850169e+00 163 104 27
-3.276790e-01 -2.306718e-01 -1.862449e+00 90 37 0
-3.276790e-01 -2.306718e-01 -1.862449e+00 90 37 0
1.006209e-02 -3.166529e-01 -1.859419e+00 133 41 29
1.006209e-02 -3.166529e-01 -1.859419e+00 133 41 29
-6.434690e-02 -5.143154e-01 -1.701215e+00 116 189 100
-9.969316e-02 -1.132961e-01 -1.776816e+00 154 94 25
-6.519857e-02 -8.317367e-02 -1.773514e+00 102 36 0
-9.830309e-02 -6.205732e-01 -1.775191e+00 199 178 135
-3.461764e-01 -6.787908e-01 -1.833074e+00 32 110 28
-1.591361e-01 -5.907908e-01 -1.786776e+00 25 109 24
7.129462e-02 -5.149665e-01 -1.696806e+00 118 104 65
3.312391e-01 -5.728798e-01 -1.591678e+00 63 62 44
4.343098e-01 -5.037389e-01 -1.564959e+00 90 84 60
4.343098e-01 -5.037389e-01 -1.564959e+00 90 84 60
2.414727e-02 -5.435698e-01 -1.732326e+00 56 78 9
1.470155e-02 -5.002321e-01 -1.686794e+00 177 196 140
1.133248e-01 -4.531431e-01 -1.711418e+00 33 117 26
5.158836e-01 -4.266245e-01 -1.575404e+00 55 48 22
2.079173e-01 -4.084661e-01 -1.689220e+00 53 124 39
1.963900e-01 -5.331210e-01 -1.578834e+00 80 79 61
3.126981e-01 -4.447334e-01 -1.650999e+00 64 62 48
2.205073e-01 -4.160189e-01 -1.681845e+00 166 125 66
3.219145e-01 -3.926065e-01 -1.675523e+00 36 29 19
-9.448422e-02 -3.646328e-01 -1.824883e+00 89 2 4
-2.584384e-01 -3.455632e-01 -1.861844e+00 111 40 6
-2.584384e-01 -3.455632e-01 -1.861844e+00 111 40 6
-2.414255e-01 -3.317807e-01 -1.851890e+00 119 58 25
-9.094529e-03 -3.118479e-01 -1.825579e+00 86 1 3
-9.094529e-03 -3.118479e-01 -1.825579e+00 86 1 3
2.613811e-02 -2.932424e-01 -1.829156e+00 86 0 2
-2.244014e-01 -1.468866e-01 -1.793968e+00 93 32 3
1.890833e-01 -5.325356e-01 -1.585793e+00 76 75 58
4.704270e-01 -4.691661e-01 -1.542204e+00 68 65 50
3.696992e-02 -4.859800e-01 -1.729264e+00 142 160 97
1.300626e-01 -4.829453e-01 -1.717631e+00 31 84 18
9.946342e-02 -4.629301e-01 -1.705531e+00 44 95 4
-7.578676e-02 -4.695466e-01 -1.867938e+00 87 3 1
2.109013e-01 -4.295707e-01 -1.659037e+00 94 69 38
3.258303e-01 -4.325110e-01 -1.643652e+00 75 73 60
1.931814e-01 -4.206701e-01 -1.685295e+00 31 88 10
3.687095e-01 -4.113273e-01 -1.638040e+00 66 64 51
-3.342393e-01 -4.338877e-01 -1.910222e+00 116 59 3
-3.342393e-01 -4.338877e-01 -1.910222e+00 116 59 3
4.075706e-01 -3.969462e-01 -1.641457e+00 67 64 53
4.075706e-01 -3.969462e-01 -1.641457e+00 67 64 53
4.130481e-01 -3.856185e-01 -1.633203e+00 68 66 52
-1.928488e-01 -3.753436e-01 -1.846371e+00 114 41 0
3.361989e-01 -3.697969e-01 -1.674580e+00 55 53 40
-2.538026e-01 -3.435410e-01 -1.848157e+00 164 102 39
-1.378379e-01 -3.319055e-01 -1.830210e+00 134 35 4
-2.333569e-02 -3.175945e-01 -1.824774e+00 91 3 2
-4.147997e-01 -1.384466e-01 -1.882078e+00 129 64 19
2.476191e-01 -4.889517e-01 -1.661859e+00 73 72 54
2.504146e-01 -4.855016e-01 -1.658039e+00 74 72 57
2.582105e-01 -4.665195e-01 -1.646628e+00 54 52 40
1.514245e-01 -4.441662e-01 -1.701817e+00 41 93 15
2.111334e-01 -4.268794e-01 -1.684413e+00 79 95 31
-2.164141e-02 -4.510664e-01 -1.853536e+00 135 38 25
-1.493040e-02 -4.374672e-01 -1.853032e+00 94 1 1
1.568017e-01 -4.152228e-01 -1.736928e+00 44 40 29
-3.548928e-02 -4.225640e-01 -1.853773e+00 145 44 29
-3.547883e-01 -4.159171e-01 -1.932357e+00 110 51 0
-3.177977e-01 -4.061601e-01 -1.941780e+00 175 114 53
-3.167764e-01 -3.987705e-01 -1.909699e+00 175 114 53
-2.483834e-01 -3.916261e-01 -1.869938e+00 165 103 47
-2.461836e-01 -3.638024e-01 -1.863097e+00 94 29 5
4.207709e-01 -3.520529e-01 -1.681717e+00 35 33 20
4.625881e-01 -2.157449e-01 -1.950683e+00 41 40 22
1.568280e-01 -5.308877e-01 -1.600948e+00 76 77 59
-5.305214e-02 -2.385473e-01 -1.827623e+00 158 64 31
-3.133283e-01 -7.052829e-03 -1.761216e+00 154 48 17
6.848482e-01 -4.271267e-01 -1.745354e+00 86 77 38
7.338328e-01 -4.645016e-01 -1.733334e+00 204 188 152
-2.048616e-01 -2.293501e-01 -1.823016e+00 111 56 16
6.936213e-01 -5.620073e-01 -1.575953e+00 101 93 46
-1.077630e-01 -2.888765e-01 -1.834940e+00 89 11 4
-2.103024e-01 -1.661950e-01 -1.805759e+00 136 81 14
-1.969215e-01 -1.672070e-01 -1.805321e+00 183 128 73
-1.788658e-01 -2.622857e-01 -1.815443e+00 189 93 55
-1.206973e-01 -3.401578e-01 -1.866829e+00 158 81 42
-3.941511e-01 -1.989017e-01 -1.911129e+00 172 119 60
-2.299512e-01 -3.088788e-01 -1.861740e+00 88 26 2
-3.778605e-01 -3.286913e-01 -1.965902e+00 122 63 1
-2.003018e-01 -2.479765e-01 -1.840413e+00 97 34 1
-2.141228e-01 -2.430248e-01 -1.829568e+00 95 34 2
-2.050995e-01 -2.298318e-01 -1.822952e+00 98 44 1
-2.050995e-01 -2.298318e-01 -1.822952e+00 98 44 1
-3.051135e-01 -1.883796e-01 -1.826693e+00 104 57 3
-3.795754e-01 -1.690552e-01 -1.883854e+00 109 70 4
-3.251006e-01 -1.262418e-01 -1.815562e+00 113 64 6
-2.116697e-01 -2.581853e-01 -1.837763e+00 105 50 4
-3.586836e-01 -2.003904e-01 -1.875820e+00 156 108 40
-3.223494e-01 -1.939055e-01 -1.847553e+00 153 107 31
-2.432534e-01 -1.329520e-01 -1.782402e+00 161 113 42
-2.203256e-01 -1.949087e-01 -1.807842e+00 95 43 7
-3.389888e-01 -1.771819e-01 -1.845193e+00 158 112 44
-3.075744e-01 -1.247561e-01 -1.797280e+00 122 64 5
-3.628894e-01 -1.224701e-01 -1.836423e+00 155 107 35
4.923824e-01 -2.825421e-01 -1.805471e+00 30 27 18
1.401986e-01 -1.909337e-01 -1.821372e+00 191 173 133
-3.645254e-01 -7.369960e-02 -1.829080e+00 154 80 47
-3.130138e-01 -4.366234e-01 -1.888929e+00 90 29 0
-3.432010e-01 -1.809532e-01 -1.848261e+00 98 56 1
-3.429529e-01 -1.811449e-01 -1.852090e+00 95 52 0
3.797013e-01 -2.242739e-01 -1.755432e+00 212 198 152
-3.768678e-01 -3.848980e-01 -1.946043e+00 173 112 52
-3.682653e-01 -1.723121e-01 -1.856518e+00 96 57 3
-2.606470e-01 3.142545e-01 -1.867062e+00 120 106 105
-1.975739e-01 -2.001826e-01 -1.802563e+00 193 142 89
-7.316842e-02 -5.682209e-01 -1.736495e+00 28 109 24
-2.737058e-01 -2.826400e-01 -1.844624e+00 126 72 30
-2.737058e-01 -2.826400e-01 -1.844624e+00 126 72 30
1.817590e-01 -6.570822e-01 -1.686585e+00 114 104 72
-2.955567e-01 -6.424807e-01 -1.757823e+00 30 109 38
-2.407919e-01 -6.209931e-01 -1.749542e+00 99 122 68
-2.049067e-01 -6.011986e-01 -1.738949e+00 177 207 151
-1.753379e-01 1.193644e-01 -1.714752e+00 20 17 34
-3.962945e-01 -1.626307e-01 -1.879929e+00 187 130 75
-3.962945e-01 -1.626307e-01 -1.879929e+00 187 130 75
-3.138977e-01 -1.228110e-02 -1.767589e+00 176 69 26
-9.669337e-02 -5.505796e-01 -1.724413e+00 19 119 21
-1.704450e-01 -5.911812e-01 -1.732394e+00 18 102 17
-3.367632e-02 -5.381454e-01 -1.713004e+00 22 103 19
-2.031406e-01 -6.191833e-01 -1.732360e+00 182 165 119
1.472681e-01 -4.378931e-01 -1.679960e+00 162 183 116
-8.353778e-02 -5.250174e-01 -1.722743e+00 37 111 27
-2.360023e-01 -6.205677e-01 -1.735153e+00 62 98 33
-1.791376e-01 -5.664264e-01 -1.728042e+00 191 212 148
2.065328e-01 -4.152762e-01 -1.682995e+00 21 95 3
-1.465385e-01 -6.724360e-02 -1.770841e+00 162 108 26
2.036550e-01 -5.858315e-01 -1.566333e+00 27 24 5
1.788017e-01 -4.119996e-01 -1.692976e+00 31 26 6
-2.109584e-01 -2.502312e-01 -1.818706e+00 159 102 24
-6.707478e-02 2.061128e-01 -1.763963e+00 61 48 57
2.147830e-01 -5.954837e-01 -1.575224e+00 34 30 4
1.565237e-01 -6.165768e-01 -1.685330e+00 43 37 15
-2.209927e-01 -4.385209e-01 -1.863268e+00 94 30 3
-2.489743e-01 -4.161285e-01 -1.858179e+00 108 44 1
-2.855395e-01 -3.973163e-01 -1.861919e+00 108 38 0
-2.251826e-01 -3.951186e-01 -1.857704e+00 89 24 1
-2.553569e-01 -3.857049e-01 -1.851689e+00 109 44 0
-2.436437e-01 -3.135279e-01 -1.834479e+00 100 44 0
-1.826778e-01 2.937596e-02 -1.765220e+00 73 70 77
-3.163337e-01 3.111474e-02 -1.785123e+00 65 61 71
-6.450305e-02 -5.122486e-01 -1.704287e+00 78 161 64
9.546983e-02 -4.595121e-01 -1.723150e+00 46 42 8
2.187047e-01 -4.069472e-01 -1.683621e+00 196 182 119
-2.291231e-01 -1.949567e-01 -1.815545e+00 101 54 11
-1.500688e-01 -9.377846e-02 -1.769557e+00 55 4 0
-2.020384e-01 2.114120e-01 -1.794811e+00 55 42 58
-3.541413e-01 -6.329507e-01 -1.755017e+00 56 106 28
-2.902527e-01 -6.226093e-01 -1.732604e+00 112 157 103
-2.902527e-01 -6.226093e-01 -1.732604e+00 112 157 103
6.150841e-01 -5.196622e-01 -1.548594e+00 43 39 15
1.296374e-01 -5.425828e-01 -1.720812e+00 28 22 8
-1.549142e-02 -5.161015e-01 -1.717273e+00 52 153 49
5.236069e-01 -2.562870e-01 -1.832611e+00 53 40 23
-2.191693e-01 -2.099066e-01 -1.811083e+00 113 51 4
6.146844e-01 -5.717012e-01 -1.584213e+00 54 48 38
-6.602502e-02 -5.072433e-01 -1.682607e+00 12 110 17
-5.934920e-02 -5.440512e-01 -1.679949e+00 182 160 123
-3.236444e-01 3.014706e-01 -1.854376e+00 206 190 137
-2.146811e-01 -5.392958e-01 -1.649506e+00 76 91 28
-3.947312e-01 -2.386762e-01 -1.973823e+00 183 127 63
7.915994e-01 -5.888831e-01 -1.622499e+00 199 189 142
-1.597325e-01 -3.032045e-01 -1.848181e+00 184 97 62
5.498317e-01 -4.388914e-01 -1.605948e+00 43 44 30
4.620012e-03 -9.996591e-02 -1.818755e+00 128 67 27
4.235378e-02 7.207501e-02 -1.803095e+00 153 32 5
-9.372720e-02 -1.961606e-01 -1.822999e+00 150 98 46
-6.475599e-03 -1.626907e-01 -1.827415e+00 146 84 31
-2.076081e-01 -1.661350e-01 -1.832430e+00 154 98 23
-3.577819e-01 -1.413191e-01 -1.916918e+00 103 53 0
-3.577819e-01 -1.413191e-01 -1.916918e+00 103 53 0
3.578366e-02 -1.410347e-01 -1.853491e+00 87 27 0
-2.433290e-02 -6.382845e-02 -1.788427e+00 88 29 2
-2.429034e-02 -1.484617e-01 -1.819787e+00 139 81 21
-3.689182e-02 -1.455873e-01 -1.810125e+00 94 35 1
-3.747434e-01 -1.402513e-01 -1.913532e+00 153 105 35
-1.055529e-01 -1.349931e-01 -1.799888e+00 134 79 12
9.617712e-03 -9.902050e-02 -1.816259e+00 91 32 0
-3.960744e-01 -8.517008e-02 -1.913738e+00 110 61 3
-3.268036e-02 -6.901754e-02 -1.792409e+00 69 13 1
-1.075351e-01 -1.606233e-01 -1.793618e+00 110 43 2
-4.729206e-02 -1.659926e-01 -1.817662e+00 87 28 1
-7.396253e-02 -1.616758e-01 -1.812647e+00 85 25 0
-4.770123e-02 -1.505985e-01 -1.812443e+00 87 33 0
-3.898200e-01 -1.171589e-01 -1.929318e+00 152 110 38
-4.023105e-01 -4.271267e-02 -1.912355e+00 179 100 61
-1.195110e-01 -3.080306e-01 -1.868323e+00 167 78 44
-1.195110e-01 -3.080306e-01 -1.868323e+00 167 78 44
-6.573208e-02 -2.736604e-01 -1.869810e+00 151 56 28
-1.037355e-01 -1.682391e-01 -1.819877e+00 101 36 2
-1.339828e-01 -1.294471e-01 -1.782046e+00 71 19 0
-2.695294e-01 -1.603373e-01 -1.813182e+00 149 94 30
-1.588017e-01 -1.425862e-01 -1.787378e+00 72 16 2
-1.645028e-01 -1.277321e-01 -1.782041e+00 144 90 17
2.029942e-01 -4.156146e-01 -1.678638e+00 35 91 2
-2.335192e-01 -4.812687e-01 -1.924716e+00 111 48 12
-2.186973e-01 -1.498338e-01 -1.798413e+00 177 120 49
-1.448460e-01 -1.282046e-01 -1.782406e+00 110 55 9
-2.704025e-01 -1.046348e-01 -1.793228e+00 169 110 35
-2.347382e-01 -2.086933e-01 -1.825356e+00 118 62 2
-2.843803e-01 -1.338571e-01 -1.803664e+00 98 42 7
-2.822994e-01 -1.313665e-01 -1.807900e+00 175 125 61
-2.552741e-01 -2.230439e-01 -1.829567e+00 99 50 3
-3.015846e-01 -1.908055e-01 -1.844471e+00 103 56 4
-2.340637e-01 -1.517050e-01 -1.801672e+00 98 36 3
-2.581016e-01 -1.347305e-01 -1.800237e+00 95 44 7
-3.052763e-01 -1.308664e-01 -1.819404e+00 107 51 2
-2.590801e-01 -1.314534e-01 -1.800950e+00 99 43 10
-2.590801e-01 -1.314534e-01 -1.800950e+00 99 43 10
-2.958689e-01 -1.293724e-01 -1.812426e+00 161 112 49
-2.958689e-01 -1.293724e-01 -1.812426e+00 161 112 49
6.753178e-01 -4.920056e-01 -1.635309e+00 198 183 142
1.924615e-01 -4.210377e-01 -1.676732e+00 212 227 158
-8.067518e-02 -1.320764e-01 -1.793070e+00 94 33 1
-2.290824e-01 -3.096825e-01 -1.871183e+00 104 47 11
-1.066912e-01 -1.790767e-01 -1.806702e+00 155 92 15
-1.244913e-01 -1.791400e-01 -1.805143e+00 74 17 0
-3.383637e-01 -1.551485e-01 -1.852700e+00 164 113 34
-3.686457e-01 -2.241905e-01 -1.921856e+00 109 60 0
-1.248548e-01 -1.091788e-01 -1.775785e+00 85 25 0
-3.792273e-01 -7.592608e-02 -1.849863e+00 143 50 13
-3.574109e-01 -6.181526e-02 -1.829316e+00 172 87 48
-1.524072e-01 -9.986687e-02 -1.790145e+00 83 26 0
-1.957430e-01 -5.686807e-01 -1.712803e+00 21 119 23
1.620005e-01 -4.274404e-01 -1.675386e+00 22 122 24
3.440394e-02 -4.651523e-01 -1.691564e+00 34 108 19
8.019876e-02 -4.509909e-01 -1.684825e+00 17 94 9
1.268866e-01 -4.350643e-01 -1.691496e+00 164 174 117
1.840622e-01 -4.188817e-01 -1.680648e+00 12 96 13
1.790486e-01 -4.184384e-01 -1.688880e+00 167 179 124
1.321531e-01 -4.513566e-01 -1.686091e+00 184 192 135
1.759394e-01 -4.096209e-01 -1.687917e+00 29 36 4
6.315378e-01 -5.241309e-01 -1.560162e+00 35 27 14
8.017075e-03 -5.567800e-01 -1.710390e+00 171 153 117
1.669486e-01 -4.491311e-01 -1.689147e+00 92 107 50
-3.169494e-01 -5.661654e-01 -1.658211e+00 15 92 17
-3.895454e-01 -5.677604e-01 -1.666329e+00 24 95 19
-1.184971e-01 -1.310142e-01 -1.773502e+00 134 79 12
6.493375e-01 -4.935105e-01 -1.593435e+00 181 165 129
-2.857329e-01 -2.183040e-01 -1.839779e+00 97 49 8
3.335618e-01 -5.162956e-01 -1.545885e+00 74 72 51
4.674858e-01 -4.747509e-01 -1.549306e+00 66 63 46
5.564787e-01 -4.386768e-01 -1.582808e+00 196 180 146
-2.440506e-01 -5.234898e-01 -1.633203e+00 13 93 15
-3.234571e-01 7.072780e-03 -1.755430e+00 104 7 0
-4.059455e-01 -6.897723e-01 -1.781960e+00 27 94 25
3.612710e-01 -5.180108e-01 -1.552976e+00 72 69 50
4.015657e-02 -4.534379e-01 -1.671909e+00 25 103 17
-2.635315e-01 -6.283481e-01 -1.751480e+00 174 195 130
3.976228e-01 -4.264771e-01 -1.753629e+00 20 11 3
6.633267e-02 -4.433759e-01 -1.679948e+00 223 233 182
2.297180e-01 -5.393882e-01 -2.110701e+00 18 2 0
-6.072081e-02 -4.612828e-01 -1.636941e+00 49 139 47
3.113680e-02 -4.721243e-01 -1.672803e+00 89 164 81
2.504189e-02 -4.670413e-01 -1.668806e+00 46 121 34
2.294234e-02 -4.412246e-01 -1.655198e+00 22 91 7
1.855380e-01 -3.951986e-01 -1.674430e+00 23 33 5
7.670541e-02 -2.698457e-01 -1.918664e+00 125 24 6
-1.744144e-01 -5.698835e-01 -1.685181e+00 185 170 127
-1.340364e-01 -5.830974e-01 -1.740416e+00 21 118 22
-4.867776e-02 -5.366061e-01 -1.720738e+00 21 112 19
-4.218864e-02 -5.709017e-01 -1.715299e+00 169 154 113
8.433832e-02 -4.741410e-01 -1.694713e+00 17 109 18
5.904646e-01 -4.791466e-01 -1.588030e+00 20 21 8
1.557079e-01 -4.447664e-01 -1.684214e+00 152 169 106
1.300589e-01 -4.725260e-01 -1.685199e+00 108 131 75
2.925653e-01 -3.720349e-01 -1.656737e+00 79 73 51
-3.668031e-01 -6.210908e-01 -1.733550e+00 21 99 19
9.212934e-02 -4.618627e-01 -1.705640e+00 175 192 141
-1.878160e-01 -6.175433e-01 -1.740171e+00 113 134 69
6.863878e-02 -4.723167e-01 -1.686449e+00 22 103 13
-3.018492e-01 -6.049494e-01 -1.709815e+00 126 145 95
-3.644217e-01 -1.940668e-01 -1.830742e+00 154 107 38
-3.644217e-01 -1.940668e-01 -1.830742e+00 154 107 38
-2.819769e-01 -3.599569e-01 -1.797791e+00 103 37 0
-2.868231e-01 -3.417746e-01 -1.809827e+00 104 36 1
-2.868231e-01 -3.417746e-01 -1.809827e+00 104 36 1
-2.793593e-01 -3.251577e-01 -1.798876e+00 150 87 30
-2.793593e-01 -3.251577e-01 -1.798876e+00 150 87 30
-2.592694e-01 -2.893616e-01 -1.797531e+00 138 77 21
-2.797438e-01 -2.795751e-01 -1.805726e+00 148 89 23
-2.233964e-01 -2.394563e-01 -1.792527e+00 72 17 0
-2.393042e-01 -2.375138e-01 -1.797197e+00 80 20 0
-2.397352e-01 -2.378678e-01 -1.798712e+00 80 20 0
-3.446116e-01 -2.085255e-01 -1.823689e+00 112 59 3
-3.446116e-01 -2.085255e-01 -1.823689e+00 112 59 3
-3.959044e-01 -1.967064e-01 -1.839931e+00 123 73 11
-2.139527e-01 -1.908925e-01 -1.797423e+00 86 35 1
-3.865213e-01 -1.716219e-01 -1.839510e+00 152 107 34
-3.601829e-01 -1.714324e-01 -1.832731e+00 156 109 36
-3.631913e-01 -1.632224e-01 -1.833032e+00 108 67 13
-1.422576e-01 -1.703665e-01 -1.782358e+00 145 87 23
-2.118103e-01 -1.657755e-01 -1.800020e+00 113 59 0
-2.107343e-01 -1.525624e-01 -1.800690e+00 87 22 0
-3.679521e-01 -1.317201e-01 -1.839793e+00 149 101 29
-3.772080e-01 -1.197739e-01 -1.838992e+00 103 53 7
-2.818825e-01 -3.716754e-01 -1.798067e+00 105 42 0
-2.834071e-01 -3.039837e-01 -1.802297e+00 96 29 0
-2.515096e-01 -3.049743e-01 -1.795037e+00 145 80 21
-2.785306e-01 -3.019940e-01 -1.800239e+00 152 86 34
-3.846353e-01 -2.958521e-01 -1.831821e+00 118 59 0
-1.636523e-01 -2.980388e-01 -1.780651e+00 93 4 2
-1.672420e-01 -2.896889e-01 -1.775219e+00 170 86 49
-2.260019e-01 -2.386268e-01 -1.794473e+00 156 108 42
-2.339145e-01 -2.363113e-01 -1.796269e+00 151 100 34
-2.287001e-01 -2.258975e-01 -1.797188e+00 81 16 0
-3.367062e-01 -1.931056e-01 -1.825455e+00 158 109 33
-3.936333e-01 -1.859809e-01 -1.839869e+00 107 59 4
-3.310433e-01 -1.805390e-01 -1.825143e+00 146 98 34
-3.872058e-01 -1.582918e-01 -1.839817e+00 157 111 34
-3.713101e-01 -1.546090e-01 -1.835973e+00 152 108 33
-3.272695e-01 -1.509389e-01 -1.823586e+00 121 73 3
-3.843733e-01 -1.477290e-01 -1.840539e+00 153 109 36
-3.723197e-01 -1.466368e-01 -1.836019e+00 117 68 4
-2.305576e-01 -1.380509e-01 -1.805210e+00 80 22 5
-3.909832e-01 -1.101780e-01 -1.847083e+00 105 57 0
-3.961493e-01 -1.011318e-01 -1.847215e+00 159 116 47
-3.782939e-01 -8.775908e-02 -1.849121e+00 92 39 4
-3.576747e-01 -8.481042e-02 -1.839967e+00 138 54 17
-4.066941e-01 -7.362677e-02 -1.845959e+00 168 108 44
-4.002768e-01 -3.179736e-01 -1.834142e+00 111 56 3
-4.001540e-01 -2.734963e-01 -1.837965e+00 110 55 1
-2.873167e-01 -2.575676e-01 -1.809270e+00 80 14 3
-4.002769e-01 -2.267832e-01 -1.838403e+00 113 53 4
-4.002769e-01 -2.267832e-01 -1.838403e+00 113 53 4
-3.688462e-01 -1.993946e-01 -1.831577e+00 100 47 0
-3.970860e-01 -1.899970e-01 -1.840177e+00 154 107 34
-2.411366e-01 -1.887752e-01 -1.802465e+00 90 40 0
-4.001453e-01 -1.799295e-01 -1.844636e+00 113 66 0
-3.066474e-01 -1.824513e-01 -1.818827e+00 99 53 0
-3.142166e-01 -1.758982e-01 -1.820769e+00 148 102 40
-3.914102e-01 -1.606328e-01 -1.840668e+00 121 64 1
-1.365150e-01 -1.714486e-01 -1.782284e+00 76 16 3
-4.237871e-01 -1.549370e-01 -1.852006e+00 122 45 5
-2.457856e-01 -1.374822e-01 -1.810538e+00 72 16 6
-3.633801e-01 -1.196535e-01 -1.838179e+00 162 113 47
-3.527313e-01 -1.163092e-01 -1.836864e+00 92 44 1
-4.253477e-01 -9.335321e-02 -1.858980e+00 130 56 13
-3.891167e-01 -8.222509e-02 -1.849286e+00 162 114 42
-4.047673e-01 -5.287610e-02 -1.853887e+00 182 105 65
-4.257371e-01 -3.555230e-02 -1.860487e+00 123 57 9
-3.210152e-01 2.456135e-02 -1.852695e+00 24 20 26
1.508520e-01 -4.601637e-01 -1.699261e+00 180 191 125
1.399601e-01 -4.542918e-01 -1.690288e+00 180 191 125
5.622547e-02 -4.838234e-01 -1.703519e+00 189 200 131
2.079728e-01 -4.046578e-01 -1.680029e+00 97 134 54
-1.722921e-01 -2.729015e-01 -1.788686e+00 130 28 0
7.102926e-02 -4.579313e-01 -1.697608e+00 121 179 95
1.077654e-01 -4.849928e-01 -1.725656e+00 12 83 9
-2.234822e-01 -1.500003e-01 -1.795046e+00 107 47 0
-2.997844e-01 -1.027137e-01 -1.779844e+00 136 40 6
1.702481e-01 -4.119655e-01 -1.688645e+00 24 23 0
-3.368742e-01 -1.266360e-01 -1.823836e+00 149 98 34
-3.788834e-01 -9.640364e-02 -1.843622e+00 153 99 18
-1.177038e-01 -9.034145e-02 -1.781050e+00 130 75 9
-4.009588e-01 -4.837380e-02 -1.843393e+00 142 57 17
-3.901946e-01 -5.112642e-02 -1.818531e+00 180 102 63
-3.904607e-01 -5.074110e-02 -1.818179e+00 180 102 63
-2.245515e-01 -2.397936e-01 -1.796562e+00 156 108 42
-2.762799e-01 -1.090671e-01 -1.787342e+00 163 110 35
-3.931352e-01 -2.238209e-01 -1.852272e+00 99 47 1
-3.395939e-01 -2.110153e-01 -1.824885e+00 99 47 0
-3.612603e-01 -1.262559e-01 -1.829747e+00 106 52 2
1.040888e-01 -4.398973e-01 -1.497852e+00 22 22 12
1.040888e-01 -4.398973e-01 -1.497852e+00 22 22 12
9.662761e-01 -1.153071e+00 -1.874784e+00 191 175 141
3.230044e-01 -4.662139e-01 -1.442125e+00 42 37 27
1.785973e-01 -4.833630e-01 -1.694892e+00 4 11 2
4.228068e-01 -6.310611e-01 -1.499004e+00 83 74 44
1.630643e+00 -1.601499e+00 -2.384929e+00 40 36 15
2.958929e-01 -5.114182e-01 -1.419659e+00 72 62 33
5.832424e-01 -8.252091e-01 -2.381778e+00 13 89 9
2.637479e-01 -5.021727e-01 -1.792470e+00 29 92 19
-3.111643e-01 -1.578202e-01 -1.939284e+00 104 50 3
-2.060427e-01 -1.665183e-01 -1.626677e+00 89 28 1
4.812374e-02 -3.136247e-01 -1.353218e+00 164 154 98
1.060668e-01 -4.282298e-01 -1.703972e+00 13 10 2
3.608270e-01 -7.192896e-01 -1.653969e+00 130 125 95
-4.492027e-01 2.078804e-01 -1.886053e+00 115 98 82
1.758305e-01 -4.427840e-01 -1.689330e+00 23 112 21
6.297635e-01 -6.034112e-01 -1.550496e+00 181 166 130
-9.570646e-03 -5.118371e-01 -1.710124e+00 25 121 24
-8.812788e-02 -5.905472e-01 -1.722858e+00 169 155 110
-5.975423e-03 -2.515263e-01 -1.759187e+00 17 12 6
6.041773e-01 -6.799050e-01 -1.568794e+00 61 50 17
1.354780e-01 -4.548637e-01 -1.688804e+00 172 186 124
1.430485e-01 -4.406269e-01 -1.683032e+00 194 218 151
5.141042e-02 -4.946086e-01 -1.704841e+00 15 95 6
1.379115e-01 -4.671590e-01 -1.689480e+00 17 84 9
1.379115e-01 -4.671590e-01 -1.689480e+00 17 84 9
1.181944e-01 -4.550847e-01 -1.692179e+00 66 149 61
-3.972299e-01 -3.331842e-01 -1.839437e+00 113 57 2
-2.151493e-01 -2.794120e-01 -1.771155e+00 119 38 1
-3.502263e-03 -2.759064e-01 -1.335881e+00 202 184 148
-8.251415e-02 -3.964146e-01 -1.567902e+00 39 35 20
2.183398e+00 -2.078390e+00 -2.792882e+00 39 36 10
5.776016e-02 -3.170746e-01 -1.350666e+00 203 186 142
-2.990663e-01 -7.360779e-02 -1.444775e+00 206 144 105
1.394568e+00 -1.395990e+00 -2.205752e+00 31 26 5
2.112624e-01 -4.671108e-01 -1.769510e+00 186 199 144
3.518915e-02 -3.138206e-01 -1.482171e+00 32 29 11
-2.946423e-01 -6.680241e-02 -1.456521e+00 46 20 24
-1.706095e-01 -1.653614e-01 -1.742458e+00 98 35 0
-1.722895e-01 -1.073002e-01 -1.651684e+00 90 34 2
-4.563192e-01 -2.723651e-01 -1.359774e+00 113 44 0
-3.753503e-01 -2.556154e-01 -1.566280e+00 153 88 33
-4.618982e-01 -2.691758e-01 -1.350753e+00 167 99 42
-5.214451e-01 -2.224380e-01 -1.250706e+00 119 58 4
3.386896e-01 -4.706490e-01 -1.451770e+00 47 42 29
7.374110e-02 -3.237743e-01 -1.348696e+00 201 183 146
-1.073421e-02 -2.551539e-01 -1.400118e+00 102 95 73
-1.830244e-01 -9.843984e-02 -1.660543e+00 88 32 1
-3.091122e-01 -8.198320e-02 -1.412763e+00 136 36 8
1.774479e-01 -4.512912e-01 -1.748117e+00 33 44 10
8.533817e-02 -3.184126e-01 -1.395447e+00 30 26 15
3.066482e-01 -5.010873e-01 -1.420478e+00 100 87 42
-1.107117e-01 -5.097020e-02 -1.677447e+00 131 39 5
-2.331247e-01 5.143112e-02 -1.679589e+00 94 82 92
-1.944461e-01 -1.437267e-01 -1.389771e+00 165 156 106
-2.434639e-01 1.587105e-02 -1.461733e+00 41 32 42
-2.989973e-02 -2.051546e-01 -1.718203e+00 194 175 133
6.487825e-01 -5.133257e-01 -1.616108e+00 26 26 18
-6.692657e-02 -3.332252e-01 -1.715166e+00 121 92 57
6.634328e-01 -6.388760e-01 -1.576822e+00 68 59 24
2.663287e-02 -2.025581e-01 -1.719095e+00 28 21 3
-1.948428e-01 -2.114024e-01 -1.783342e+00 130 39 3
2.186504e-01 -1.383577e-01 -1.624727e+00 131 124 78
9.889685e-02 -4.698416e-01 -1.686823e+00 40 93 19
-9.923796e-03 -1.710106e-02 -1.796093e+00 126 22 3
2.073706e-01 -1.471512e-01 -1.683805e+00 25 21 1
-3.703153e-01 -8.078187e-02 -1.820720e+00 131 45 6
-1.305324e-01 -2.511686e-01 -1.974600e+00 155 104 22
-2.029600e-01 -2.254412e-01 -1.808888e+00 137 87 20
-2.741690e-01 -1.050130e-01 -1.775678e+00 168 84 50
1.484814e-01 -5.095690e-01 -1.701052e+00 17 22 8
-3.550445e-01 -1.415123e-01 -1.917518e+00 118 69 0
-2.691774e-01 -1.324812e-01 -1.818129e+00 155 103 42
-3.959605e-01 -9.573245e-02 -1.875235e+00 146 96 35
-4.257489e-01 -3.644070e-02 -1.896933e+00 99 20 3
2.591813e-01 -4.175403e-01 -1.670576e+00 10 9 4
3.579691e-01 -8.312505e-01 -1.557062e+00 157 143 95
3.483615e-01 -5.714301e-01 -1.493008e+00 80 75 55
2.225694e-01 -4.382269e-01 -1.682259e+00 128 141 92
1.748111e-01 -4.942168e-01 -1.710882e+00 141 165 114
1.689737e-01 -4.709132e-01 -1.707891e+00 198 215 153
1.651134e-01 -4.684501e-01 -1.704581e+00 198 215 153
2.203460e-01 -4.079523e-01 -1.702304e+00 133 118 57
-4.142285e-01 -1.358405e-01 -1.919865e+00 165 111 50
-3.681362e-01 -1.200483e-01 -1.850621e+00 101 53 12
-3.683324e-01 -1.203779e-01 -1.850282e+00 101 53 12
-3.794591e-01 -1.143701e-01 -1.861949e+00 102 51 10
-3.796278e-01 -1.142022e-01 -1.861827e+00 102 51 10
-4.131563e-01 -8.661430e-02 -1.873190e+00 153 96 31
-2.446095e-01 -1.161533e-01 -1.779046e+00 157 99 29
-3.975261e-01 -4.849620e-02 -1.820782e+00 163 89 56
-4.066339e-01 -3.947866e-02 -1.834557e+00 162 87 53
-4.065103e-01 -3.990328e-02 -1.833672e+00 162 87 53
2.654968e-01 -6.785975e-01 -1.520118e+00 69 69 59
-9.424749e-02 -3.373241e-01 -1.962547e+00 90 1 0
-2.377343e-01 -2.856613e-01 -1.940651e+00 104 48 11
-1.002259e-01 -2.810200e-01 -1.917102e+00 87 0 0
-3.939055e-01 -1.938088e-01 -1.941269e+00 153 104 37
-3.354837e-01 -2.031826e-01 -1.898935e+00 151 103 30
-3.282473e-01 -2.042469e-01 -1.900065e+00 150 100 29
-4.032567e-01 -1.875384e-01 -1.949297e+00 146 97 26
-3.662545e-01 -1.917978e-01 -1.912047e+00 150 106 32
-3.662545e-01 -1.917978e-01 -1.912047e+00 150 106 32
-3.771885e-01 -1.875916e-01 -1.919096e+00 154 110 36
-3.843008e-01 -1.841329e-01 -1.921651e+00 152 107 38
-3.836785e-01 -1.839527e-01 -1.922725e+00 152 107 38
-3.613383e-01 -1.674609e-01 -1.883305e+00 149 106 30
-3.245731e-01 -1.679214e-01 -1.853613e+00 143 95 29
-3.590131e-01 -1.485332e-01 -1.866108e+00 114 60 0
-3.590131e-01 -1.485332e-01 -1.866108e+00 114 60 0
-3.728252e-01 -1.430169e-01 -1.875390e+00 111 57 0
-3.742549e-01 -1.433494e-01 -1.873304e+00 111 57 0
-3.796322e-01 -1.088225e-01 -1.852119e+00 152 104 38
-3.925810e-01 -1.022479e-01 -1.861032e+00 148 103 38
-3.813600e-01 -8.602944e-02 -1.838781e+00 85 30 0
-3.678328e-01 -8.510873e-02 -1.825444e+00 161 110 54
-3.832954e-01 -7.813035e-02 -1.837788e+00 156 111 46
-4.053864e-01 -7.262862e-02 -1.854541e+00 92 40 1
-4.052889e-01 -7.254837e-02 -1.854637e+00 92 40 1
-4.104303e-01 -6.819649e-02 -1.865094e+00 157 90 38
-3.931887e-01 -7.438347e-02 -1.841228e+00 162 112 48
-3.791256e-01 -7.656026e-02 -1.824884e+00 134 47 12
-1.241431e-01 -1.327478e-01 -1.798125e+00 133 78 24
-3.908739e-01 -7.081646e-02 -1.832409e+00 129 46 8
-1.346179e-01 -1.031976e-01 -1.768621e+00 66 19 1
-1.356777e-01 -9.517427e-02 -1.753406e+00 125 74 14
-1.911171e-01 -5.190971e-01 -2.146739e+00 172 99 49
-3.664103e-01 -4.839694e-01 -2.216113e+00 177 110 62
-1.819251e-01 -5.005624e-01 -2.150398e+00 101 41 0
-3.451547e-01 -4.344372e-01 -2.094311e+00 109 54 1
-3.898955e-01 -4.237674e-01 -2.094260e+00 156 95 36
-3.898955e-01 -4.237674e-01 -2.094260e+00 156 95 36
-4.069894e-01 -4.304485e-01 -2.201336e+00 99 39 3
-3.537218e-01 -4.201735e-01 -2.078984e+00 159 97 38
-3.452410e-01 -4.234510e-01 -2.098307e+00 159 97 38
-3.821660e-01 -4.242573e-01 -2.173506e+00 111 59 7
-3.592217e-01 -4.244110e-01 -2.150997e+00 156 98 34
-3.296639e-01 -4.254503e-01 -2.125699e+00 99 38 0
-3.899869e-01 -4.073335e-01 -2.131777e+00 155 95 35
-2.028253e-01 -4.427441e-01 -2.083650e+00 148 86 29
-1.754969e-01 -4.507443e-01 -2.093862e+00 155 88 33
-4.046416e-01 -3.887333e-01 -2.115002e+00 105 46 4
-2.208377e-01 -4.303982e-01 -2.082491e+00 98 27 1
-4.078993e-01 -3.866009e-01 -2.155274e+00 96 38 0
-2.039190e-01 -4.244893e-01 -2.071166e+00 145 82 28
-3.659399e-01 -3.711997e-01 -2.056373e+00 91 34 0
-3.226546e-01 -3.779272e-01 -2.039820e+00 158 90 36
-2.446503e-01 -3.831237e-01 -2.013943e+00 101 27 0
-2.365084e-01 -3.701760e-01 -2.026312e+00 98 23 4
-3.542464e-01 -3.400919e-01 -2.017015e+00 113 57 3
-4.612503e-02 -4.232376e-01 -2.064575e+00 102 10 0
-2.303144e-01 -3.690906e-01 -2.022709e+00 152 84 29
-2.365216e-01 -3.680491e-01 -2.010755e+00 152 84 29
-4.154974e-01 -2.925690e-01 -2.033156e+00 94 35 2
-1.945384e-01 -3.103631e-01 -1.960743e+00 150 96 29
-4.487816e-01 -2.540579e-01 -2.096987e+00 153 64 32
-8.600757e-02 -3.309245e-01 -1.963924e+00 131 43 21
-1.016602e-01 -3.199640e-01 -1.946078e+00 91 3 0
-4.260390e-02 -3.340796e-01 -1.995324e+00 78 1 0
-6.097896e-02 -3.241504e-01 -1.986073e+00 86 0 0
-1.761532e-01 -2.847801e-01 -1.933036e+00 115 53 0
-9.006652e-02 -2.786058e-01 -1.919606e+00 80 1 0
-4.636968e-01 -1.862470e-01 -2.066379e+00 112 33 4
-3.817925e-01 -1.999245e-01 -1.933910e+00 154 109 39
-3.817925e-01 -1.999245e-01 -1.933910e+00 154 109 39
-1.899508e-01 -2.320505e-01 -1.883419e+00 77 14 0
-1.924771e-01 -2.178937e-01 -1.871050e+00 77 23 0
-3.251584e-01 -1.774605e-01 -1.874717e+00 148 102 41
-3.912340e-01 -1.521325e-01 -1.906561e+00 147 101 32
-3.338237e-01 -1.641471e-01 -1.861368e+00 143 94 26
-3.736466e-01 -1.491250e-01 -1.880917e+00 150 102 38
-3.817096e-01 -1.369755e-01 -1.884741e+00 109 56 0
-3.792383e-01 -1.024002e-01 -1.850410e+00 87 40 1
-3.792383e-01 -1.024002e-01 -1.850410e+00 87 40 1
-2.877697e-01 -1.065826e-01 -1.787751e+00 126 40 1
-2.862968e-01 -1.059195e-01 -1.779891e+00 128 46 4
-3.522019e-01 -8.773682e-02 -1.813919e+00 130 45 8
-1.361844e-01 -1.352991e-01 -1.796954e+00 123 68 20
-3.964404e-01 -6.868469e-02 -1.852224e+00 155 99 40
-1.321467e-01 -8.704930e-02 -1.754891e+00 82 28 0
-1.347382e-01 -8.203175e-02 -1.753600e+00 146 84 27
3.836141e-01 -8.573694e-01 -1.563508e+00 156 141 100
-1.661119e-01 -5.287319e-01 -2.162561e+00 173 101 48
-3.843850e-01 -4.433806e-01 -2.191292e+00 99 39 6
-3.843257e-01 -4.336679e-01 -2.188871e+00 155 97 42
-2.323494e-01 -4.394128e-01 -2.062917e+00 100 31 3
-3.628371e-01 -4.094243e-01 -2.112946e+00 106 53 1
-3.628371e-01 -4.094243e-01 -2.112946e+00 106 53 1
-4.010512e-01 -3.828002e-01 -2.133858e+00 153 92 35
-3.441158e-01 -3.778372e-01 -2.034232e+00 98 35 0
-3.873663e-01 -3.617206e-01 -2.071341e+00 100 43 1
-2.262996e-01 -3.894156e-01 -2.042203e+00 148 80 34
-4.082559e-01 -3.408965e-01 -2.081669e+00 151 90 38
-1.715281e-01 -3.581470e-01 -2.002302e+00 98 36 1
-4.111762e-01 -2.868937e-01 -2.027055e+00 154 95 33
-4.570372e-01 -2.689321e-01 -2.113756e+00 118 27 2
-2.367473e-01 -3.048351e-01 -1.960058e+00 103 39 0
-1.882527e-01 -3.129638e-01 -1.958044e+00 145 89 28
-2.262149e-01 -2.903571e-01 -1.942810e+00 84 31 0
-2.262149e-01 -2.903571e-01 -1.942810e+00 84 31 0
-3.232223e-01 -2.538717e-01 -1.944143e+00 77 16 3
-3.345251e-01 -2.478310e-01 -1.928287e+00 161 103 40
-3.997967e-01 -2.203156e-01 -1.973718e+00 159 102 46
-4.825703e-01 -1.839395e-01 -2.106543e+00 147 77 41
-3.978743e-01 -1.893270e-01 -1.939399e+00 147 100 30
-1.961539e-01 -2.306398e-01 -1.882800e+00 149 91 41
-3.049781e-01 -1.911704e-01 -1.874314e+00 149 94 30
-3.203420e-01 -1.756698e-01 -1.872030e+00 95 49 1
-4.945818e-01 -1.100089e-01 -2.057569e+00 117 54 11
-2.240256e-01 -1.590311e-01 -1.819457e+00 122 69 3
-2.160338e-01 -1.603526e-01 -1.816675e+00 118 65 4
-2.160338e-01 -1.603526e-01 -1.816675e+00 118 65 4
-3.910715e-01 -8.297184e-02 -1.848805e+00 103 45 0
-3.908840e-01 -7.970215e-02 -1.835128e+00 107 56 0
-4.566947e-01 2.012083e-01 -1.831718e+00 92 82 80
5.694364e-01 -6.223342e-01 -1.516556e+00 190 172 136
-1.837871e-01 -6.008554e-01 -1.747004e+00 24 130 26
-9.121274e-02 -5.626726e-01 -1.735394e+00 28 129 31
-3.269268e-01 -6.595167e-01 -1.770841e+00 22 116 22
-3.226462e-02 -5.456866e-01 -1.715256e+00 27 108 17
1.194194e-02 -5.071705e-01 -1.709952e+00 134 159 89
1.279070e-02 -5.073426e-01 -1.709843e+00 134 159 89
-3.110661e-01 1.624032e-02 -1.848942e+00 84 62 60
-2.133250e-01 -1.202622e-01 -1.783422e+00 100 39 0
-2.133250e-01 -1.202622e-01 -1.783422e+00 100 39 0
-2.298397e-01 -1.514483e-01 -1.756554e+00 108 47 0
-2.280817e-01 -1.482391e-01 -1.782665e+00 117 62 1
-3.855402e-01 -8.106709e-02 -1.828954e+00 157 105 32
-3.875432e-01 -7.954510e-02 -1.820314e+00 157 105 32
-3.175664e-01 1.620982e-02 -1.831118e+00 82 54 53
-2.384170e-01 -2.211425e-01 -1.745645e+00 152 95 25
-1.529633e-01 -1.036348e-01 -1.782406e+00 95 36 0
2.867894e-01 -4.088969e-01 -1.767284e+00 28 25 16
-3.426214e-01 -8.069940e-01 -1.911146e+00 21 119 20
8.629748e-02 -4.624146e-01 -1.698629e+00 157 196 125
-2.799896e-01 -3.645255e-01 -1.813789e+00 149 87 29
-2.208528e-01 -8.520882e-01 -2.008382e+00 80 121 49
-2.476439e-01 -3.027977e-01 -1.794498e+00 149 89 27
-2.583853e-01 -2.193040e-01 -1.755372e+00 104 45 0
-4.158184e-01 -1.187627e-01 -1.825844e+00 180 116 63
-1.596778e-01 -8.772343e-02 -1.770981e+00 94 38 0
3.420957e-01 -7.176274e-01 -1.635094e+00 71 67 50
6.096745e-02 -4.878530e-01 -1.702513e+00 94 125 55
-1.826359e-02 -5.156515e-01 -1.721671e+00 20 103 18
1.327799e-02 -5.072866e-01 -1.709444e+00 122 157 84
1.686652e-01 -4.139926e-01 -1.681459e+00 157 175 113
-3.510257e-02 -5.315937e-01 -1.733419e+00 23 102 15
2.081009e-01 -4.364203e-01 -1.701694e+00 24 107 22
1.390151e-01 -4.634174e-01 -1.702781e+00 12 97 4
-4.219488e-01 -7.153289e-01 -1.806635e+00 70 95 29
-3.110876e-02 -5.389745e-01 -1.732672e+00 25 91 4
5.741780e-02 -5.019811e-01 -1.730948e+00 137 178 110
-4.047590e-01 -7.243916e-01 -1.795726e+00 20 97 14
-4.142196e-01 -7.122532e-01 -1.788586e+00 32 104 12
5.814812e-02 -5.052242e-01 -1.718534e+00 49 138 45
5.814812e-02 -5.052242e-01 -1.718534e+00 49 138 45
-3.425023e-01 -7.102701e-01 -1.811644e+00 63 92 24
-3.411859e-01 -2.024567e-01 -1.939821e+00 116 64 8
-1.969275e-01 -1.221615e-01 -1.834650e+00 89 36 0
-4.321887e-01 -1.966032e-01 -2.074268e+00 150 66 34
-3.800398e-01 -8.293348e-02 -1.849271e+00 153 100 36
-4.035355e-01 -5.192826e-02 -1.848899e+00 165 84 47
-1.116861e-01 -8.025658e-02 -1.767129e+00 133 73 8
1.934485e-01 -3.850514e-01 -1.673190e+00 31 27 9
3.847876e-01 -6.224201e-01 -1.477301e+00 101 88 50
3.107966e-01 -5.710298e-01 -1.485196e+00 89 83 61
1.669598e-01 -4.676715e-01 -1.721271e+00 17 91 6
-2.173855e-01 -1.189495e+00 -2.218748e+00 44 99 27
-1.697958e-01 -1.062845e+00 -2.138068e+00 190 208 149
3.271888e-01 -7.645371e-01 -1.526954e+00 136 125 70
2.636406e-01 -6.052372e-01 -1.843368e+00 22 27 7
1.814086e-01 -5.050877e-01 -1.710529e+00 10 13 5
-1.392116e-01 -1.447956e-01 -1.824508e+00 81 23 1
-2.059471e-01 -1.208235e-01 -1.822216e+00 99 47 12
2.520771e-01 -5.855660e-01 -1.561683e+00 56 56 44
1.528719e-01 -5.234227e-01 -1.747950e+00 24 93 11
-3.974818e-01 -4.210623e-01 -2.109515e+00 163 98 39
-4.239834e-01 -4.114318e-01 -2.151115e+00 174 103 45
-3.127178e-01 -3.870472e-01 -2.040283e+00 110 50 10
-4.716209e-01 -1.879174e-01 -1.918776e+00 151 67 33
-3.721063e-01 -1.992248e-01 -1.913227e+00 103 52 2
-3.772263e-01 -1.861331e-01 -1.920993e+00 154 110 36
-4.010166e-01 -1.765072e-01 -1.927358e+00 151 108 36
-4.020057e-01 -1.763479e-01 -1.924557e+00 151 108 36
-3.515236e-01 -1.844678e-01 -1.896803e+00 149 101 34
-2.969700e-01 -1.871815e-01 -1.864047e+00 147 94 22
-3.630380e-01 -1.587790e-01 -1.883049e+00 103 63 7
-3.903252e-01 -1.507703e-01 -1.843186e+00 97 56 1
-3.660906e-01 -1.345219e-01 -1.859298e+00 110 67 1
-4.160064e-01 -9.741808e-02 -1.811626e+00 150 105 37
-4.160064e-01 -9.741808e-02 -1.811626e+00 150 105 37
1.575458e-01 -2.169202e-01 -1.828149e+00 65 63 51
-1.220563e-01 -1.448557e-01 -1.830802e+00 75 20 0
-3.680649e-01 -7.795452e-02 -1.805253e+00 157 82 43
-1.438490e-01 -1.059482e-01 -1.778920e+00 57 12 0
-2.865395e-01 -1.225475e+00 -2.274299e+00 192 213 155
-2.875874e-01 -1.133456e+00 -2.237168e+00 45 93 25
-3.610132e-01 -4.473679e-01 -2.116428e+00 118 61 14
-3.606337e-01 -4.475415e-01 -2.118087e+00 118 61 14
-3.704917e-01 -4.430360e-01 -2.140708e+00 110 52 8
-3.695348e-01 -4.433092e-01 -2.145487e+00 110 52 8
-2.377492e-01 -4.015944e-01 -2.012745e+00 87 18 1
-3.900436e-01 -3.517592e-01 -2.057157e+00 157 98 33
-3.418363e-01 -3.442117e-01 -2.013810e+00 105 39 0
-3.631476e-01 -3.370684e-01 -2.033361e+00 104 49 4
-3.631476e-01 -3.370684e-01 -2.033361e+00 104 49 4
-3.805428e-01 -3.278053e-01 -2.010753e+00 110 53 0
-3.898071e-01 -3.248079e-01 -2.042451e+00 109 51 0
-4.684498e-01 -2.357179e-01 -1.932436e+00 109 18 1
-3.569924e-01 -1.942657e-01 -1.910889e+00 152 108 34
-3.692145e-01 -1.834902e-01 -1.909129e+00 99 57 2
-3.005956e-01 -2.004363e-01 -1.862743e+00 142 91 26
-4.785330e-01 -1.384060e-01 -1.880464e+00 95 16 1
-3.651881e-01 -1.137462e-01 -1.847599e+00 152 105 36
-3.243671e-01 -1.230110e-01 -1.817695e+00 92 40 0
-2.797347e-01 -1.309837e-01 -1.802560e+00 160 107 51
-3.735012e-01 -1.052581e-01 -1.844973e+00 95 49 1
-3.076233e-01 -1.057547e-01 -1.797875e+00 156 99 37
-3.294952e-01 -9.618409e-02 -1.796289e+00 132 44 15
-1.491873e-01 -1.055209e-01 -1.788217e+00 78 12 0
-2.721362e-01 -1.204642e+00 -2.250658e+00 112 198 99
-2.721362e-01 -1.204642e+00 -2.250658e+00 112 198 99
-1.927700e-01 -9.624779e-01 -2.107270e+00 188 187 145
1.633373e-01 -4.783118e-01 -1.719457e+00 87 160 70
-3.834091e-01 -3.627487e-01 -2.077971e+00 100 43 1
1.883754e-01 -4.055465e-01 -1.667868e+00 43 64 20
-3.370535e-01 -2.461661e-01 -1.930700e+00 114 49 3
-4.813665e-01 -1.862937e-01 -1.903434e+00 106 25 4
-4.813665e-01 -1.862937e-01 -1.903434e+00 106 25 4
-5.086723e-01 -1.592843e-01 -1.875873e+00 119 46 12
-3.991823e-01 -1.687373e-01 -1.933929e+00 94 51 1
-3.325701e-01 -1.746409e-01 -1.869484e+00 81 36 0
-1.938566e-01 -1.898307e-01 -1.876737e+00 96 47 5
-3.584352e-01 -1.142392e-01 -1.838932e+00 140 99 35
-4.029553e-01 -1.002060e-01 -1.876938e+00 92 39 1
-3.709616e-01 -1.022661e-01 -1.841943e+00 149 97 32
7.338493e-01 -7.141652e-01 -1.619127e+00 75 68 42
-1.876744e+00 8.844166e-01 -2.455169e+00 130 118 98
-1.876744e+00 8.844166e-01 -2.455169e+00 130 118 98
2.573162e-01 -1.368871e-01 -1.763403e+00 161 150 112
2.176404e-01 -6.575731e-03 -1.880086e+00 197 179 141
2.176404e-01 -6.575731e-03 -1.880086e+00 197 179 141
2.346369e-01 -9.695464e-01 -1.848502e+00 186 168 128
1.222191e-01 -4.576768e-02 -1.877904e+00 199 181 143
-3.529557e-01 -7.397734e-01 -1.733728e+00 22 102 19
-2.359980e-01 -7.138840e-01 -1.754965e+00 18 96 14
-1.175884e-01 -6.726745e-01 -1.763579e+00 22 94 13
3.865893e-01 -5.830395e-01 -1.516126e+00 34 31 19
3.250923e-01 -5.490257e-01 -1.503065e+00 90 82 59
2.674233e-01 -2.505080e-01 -2.030923e+00 73 68 48
-9.403028e-02 -4.611378e-03 -1.819844e+00 196 115 66
-1.045157e-02 -5.242186e-01 -1.706735e+00 11 85 10
4.634014e-01 -6.341217e-01 -1.535920e+00 54 44 19
1.783548e-01 -4.850933e-01 -1.719090e+00 21 94 19
1.561554e-01 -4.775080e-01 -1.703476e+00 21 94 19
1.705451e-01 -4.679602e-01 -1.723228e+00 18 84 7
2.369704e-01 -4.222223e-01 -1.707013e+00 18 66 4
4.461693e-01 -4.028443e-01 -1.625665e+00 95 89 72
-2.017077e-01 -1.488330e-01 -1.802052e+00 162 105 53
-2.205177e-01 -1.279850e-01 -1.795660e+00 143 85 12
5.514383e-01 -7.043852e-01 -1.563911e+00 74 64 30
-4.189568e-01 -2.735627e-01 -2.039805e+00 166 106 49
1.331365e-01 -4.696122e-01 -1.708465e+00 22 86 8
-1.513363e-01 -3.370908e-01 -1.963094e+00 137 39 7
-2.912637e-01 -2.622066e-01 -1.909759e+00 74 29 6
-2.912637e-01 -2.622066e-01 -1.909759e+00 74 29 6
-3.295898e-01 -2.039834e-01 -1.898133e+00 134 86 20
-3.357012e-01 -1.956530e-01 -1.892775e+00 96 51 17
-4.444645e-01 -1.472925e-01 -1.959605e+00 107 20 10
-4.488363e-01 -1.345469e-01 -1.988815e+00 107 22 1
-3.117211e-01 -1.777761e-01 -1.847563e+00 99 56 14
-3.611537e-01 -1.565321e-01 -1.868279e+00 138 88 26
-3.451815e-01 -1.567805e-01 -1.852093e+00 95 42 2
-3.298981e-01 -1.590749e-01 -1.853525e+00 108 52 10
3.918071e-01 -3.821340e-01 -1.777804e+00 62 59 44
5.087279e-01 -4.579322e-01 -1.542290e+00 199 186 134
4.720523e-01 -3.202219e-01 -1.756840e+00 122 113 86
-2.248219e-01 -1.120665e-01 -1.774332e+00 149 90 24
-2.211095e-01 -1.118492e-01 -1.778143e+00 149 90 24
-3.804798e-01 -5.684636e-02 -1.814825e+00 159 84 51
4.989347e-01 -8.216189e-02 -2.133499e+00 17 14 0
4.873891e-01 -7.455079e-02 -2.141380e+00 209 196 154
-4.370828e-01 -7.505555e-01 -1.719875e+00 169 179 123
-3.232537e-01 -4.847283e-01 -2.085117e+00 164 101 56
2.349575e-01 -6.628484e-01 -1.505963e+00 81 79 67
-3.730032e-01 -4.130598e-01 -2.102828e+00 139 77 24
9.452063e-02 -5.118937e-01 -1.750004e+00 208 220 171
-4.514738e-01 -2.397913e-01 -2.059278e+00 132 52 25
-4.514738e-01 -2.397913e-01 -2.059278e+00 132 52 25
-2.415811e-01 -3.217589e-01 -1.931574e+00 141 85 27
-2.522858e-01 -2.905981e-01 -1.915020e+00 142 84 26
-1.062183e-01 -2.786597e-01 -1.911702e+00 84 0 0
-4.786809e-01 -1.339477e-01 -2.008384e+00 144 57 30
-4.394414e-01 -1.422981e-01 -1.975627e+00 98 10 1
-4.010477e-01 -1.621595e-01 -1.926664e+00 142 91 22
-3.483794e-01 -1.714959e-01 -1.880272e+00 139 90 24
-2.119003e-01 -2.203692e-01 -1.855729e+00 143 91 25
3.617830e-01 -4.028189e-01 -1.720137e+00 38 28 10
-4.447487e-01 -8.684684e-02 -1.956178e+00 137 51 27
3.506340e-01 -3.830198e-01 -1.719626e+00 38 31 17
-4.397712e-01 -8.701679e-02 -1.923912e+00 133 49 24
-4.397712e-01 -8.701679e-02 -1.923912e+00 133 49 24
-4.592332e-01 -6.739968e-02 -1.965322e+00 96 18 0
-3.788001e-01 -9.618792e-02 -1.874969e+00 91 47 3
-3.788001e-01 -9.618792e-02 -1.874969e+00 91 47 3
5.060196e-01 -4.442028e-01 -1.550779e+00 202 188 141
-1.516753e-01 -1.686231e-01 -1.824115e+00 99 40 0
-4.362936e-01 -5.735314e-02 -1.904756e+00 100 18 0
-3.907924e-01 -7.507179e-02 -1.864058e+00 74 25 0
-4.263287e-01 -4.496997e-02 -1.913643e+00 91 19 5
-4.357014e-01 -5.016523e-02 -1.890853e+00 91 19 5
-4.430627e-01 -4.408632e-02 -1.896221e+00 81 12 0
-4.581211e-01 -1.948119e-02 -1.962369e+00 108 26 7
-4.022854e-01 -6.754306e-02 -1.850967e+00 141 84 27
-3.679599e-01 -8.641944e-02 -1.807736e+00 133 38 8
-3.763379e-01 -7.331407e-02 -1.843038e+00 129 39 10
-1.193439e-01 -1.525396e-01 -1.818409e+00 80 20 1
-3.070399e-01 -1.030288e-01 -1.784050e+00 128 33 3
-4.454922e-01 -2.587203e-02 -1.899405e+00 84 17 3
-4.346472e-01 -3.135383e-02 -1.882378e+00 130 59 34
-4.378754e-01 -2.018199e-02 -1.903172e+00 135 58 32
-1.423774e-01 -1.066887e-01 -1.774282e+00 121 70 21
-1.657593e-01 -8.911653e-02 -1.760677e+00 71 10 3
-1.617595e-01 -8.169225e-02 -1.760093e+00 146 83 22
3.616561e-01 -8.300654e-01 -1.560022e+00 158 143 87
3.544898e-01 -8.194964e-01 -1.639948e+00 50 50 40
3.044675e-01 -7.033198e-01 -1.537397e+00 18 18 8
-4.064297e-01 -4.059053e-01 -2.145415e+00 95 34 0
-5.161034e-01 -3.683167e-01 -2.311133e+00 146 84 52
-2.387747e-01 -4.674935e-01 -2.029630e+00 96 36 0
-4.126687e-01 -3.928393e-01 -2.117193e+00 145 86 30
-4.258085e-01 -3.884122e-01 -2.087549e+00 145 86 30
2.523985e-01 -6.550231e-01 -1.509539e+00 20 17 2
-4.182828e-01 -3.613941e-01 -2.097018e+00 86 24 0
-4.850426e-01 -3.214648e-01 -2.138490e+00 114 23 1
-4.120499e-01 -3.318329e-01 -2.058593e+00 97 35 2
-4.912633e-01 -2.321395e-01 -2.083544e+00 105 21 0
-4.581227e-01 -2.317953e-01 -2.073530e+00 133 55 31
-4.581227e-01 -2.317953e-01 -2.073530e+00 133 55 31
-4.917266e-01 -2.135144e-01 -2.105844e+00 138 59 29
-4.917266e-01 -2.135144e-01 -2.105844e+00 138 59 29
-4.757853e-01 -2.195581e-01 -2.070580e+00 139 58 28
-4.451199e-01 -2.295974e-01 -2.043616e+00 134 51 22
-4.504579e-01 -2.289342e-01 -2.026456e+00 134 51 22
-4.899087e-01 -2.055939e-01 -2.109220e+00 102 25 3
-4.497685e-01 -2.198999e-01 -2.029504e+00 97 12 0
-4.831659e-01 -2.023980e-01 -2.078056e+00 107 21 2
-4.140977e-01 -2.321873e-01 -1.979873e+00 82 17 5
-2.635971e-01 -2.949181e-01 -1.919119e+00 152 92 35
-5.042098e-01 -1.765850e-01 -2.148177e+00 109 34 4
-3.423207e-01 -2.488984e-01 -1.946071e+00 153 95 33
1.812459e-01 -4.707469e-01 -1.708745e+00 19 74 9
-4.931124e-01 -1.633998e-01 -2.108648e+00 111 30 1
-4.841518e-01 -1.389248e-01 -2.083311e+00 146 59 32
-4.816977e-01 -1.339196e-01 -2.069462e+00 104 23 0
-4.642449e-01 -1.387886e-01 -2.018865e+00 134 62 33
-4.754857e-01 -1.337608e-01 -1.997193e+00 93 12 2
-3.163980e-01 -2.026851e-01 -1.879580e+00 155 109 47
-4.545848e-01 -1.342759e-01 -2.005112e+00 135 53 23
-4.455421e-01 -1.391593e-01 -1.976268e+00 148 54 29
-4.855478e-01 -9.734759e-02 -2.078606e+00 147 71 37
-4.845017e-01 -9.494656e-02 -2.083938e+00 147 71 37
-2.156956e-01 -2.255870e-01 -1.861347e+00 70 12 6
-4.925287e-01 -8.565208e-02 -2.111805e+00 113 40 7
-4.870080e-01 -8.683455e-02 -2.085449e+00 111 31 2
-3.048596e-01 -1.842971e-01 -1.859203e+00 141 87 21
-2.169925e-01 -2.119057e-01 -1.850151e+00 81 25 5
-4.503926e-01 -1.086467e-01 -1.975480e+00 141 51 24
-4.547464e-01 -1.025457e-01 -1.983355e+00 138 55 27
-4.373920e-01 -1.100353e-01 -1.946019e+00 134 50 27
-3.772267e-01 -1.402185e-01 -1.881996e+00 144 89 26
-4.436519e-01 -9.945513e-02 -1.967840e+00 133 51 27
-3.628033e-01 -1.402403e-01 -1.865114e+00 142 91 27
-3.292681e-01 -1.514504e-01 -1.853807e+00 139 91 19
-1.485996e-01 -2.043092e-01 -1.849608e+00 161 63 34
-4.405716e-01 -7.715262e-02 -1.948003e+00 136 51 30
-4.502500e-01 -6.536067e-02 -1.965492e+00 140 54 31
-4.636412e-01 -4.282218e-02 -1.993105e+00 133 58 29
3.251494e-01 -2.742298e-01 -1.943458e+00 68 66 54
-4.568812e-01 -3.342777e-02 -1.965000e+00 146 58 30
-2.084198e-01 -1.457447e-01 -1.806547e+00 89 30 0
-2.084198e-01 -1.457447e-01 -1.806547e+00 89 30 0
-1.564368e-01 -1.584754e-01 -1.812845e+00 104 48 1
-3.680250e-01 -9.116100e-02 -1.808876e+00 151 105 42
-2.903987e-01 -1.083979e-01 -1.789298e+00 152 95 33
-3.762282e-01 -7.572255e-02 -1.816620e+00 162 79 48
-3.674600e-01 -7.447345e-02 -1.822694e+00 119 35 3
-3.674600e-01 -7.447345e-02 -1.822694e+00 119 35 3
-4.471783e-01 -1.681659e-02 -1.933948e+00 135 59 35
-4.507195e-01 -9.433202e-03 -1.943936e+00 132 54 32
-2.179294e-01 -1.221504e-01 -1.780043e+00 76 13 0
-2.117968e-01 -1.221742e-01 -1.787686e+00 76 13 0
-4.664850e-01 1.500594e-02 -1.984215e+00 95 20 1
-4.709615e-01 3.351586e-02 -1.996391e+00 136 73 39
-1.262784e-01 -1.155855e-01 -1.788607e+00 133 79 27
-1.237712e-01 -1.075208e-01 -1.789382e+00 79 18 0
