ply
format ascii 1.0
element face 0
property list uchar int vertex_indices
element vertex 934
property float x
property float y
property float z
property uchar diffuse_red
property uchar diffuse_green
property uchar diffuse_blue
end_header
-1.890656e-01 -4.426576e-01 -1.853245e+00 80 13 0
-6.696353e-02 -4.341410e-01 -1.823272e+00 74 6 2
-1.909294e-01 -4.332780e-01 -1.851465e+00 79 13 0
-2.160986e-01 -4.353274e-01 -1.862850e+00 64 6 0
-2.321151e-01 -4.369193e-01 -1.869710e+00 132 68 13
-3.529353e-01 -4.453564e-01 -1.938238e+00 161 98 54
-2.102684e-01 -4.141475e-01 -1.857220e+00 81 21 1
-3.205868e-01 -4.114598e-01 -1.905382e+00 148 87 39
-3.331113e-01 -4.111172e-01 -1.912813e+00 91 33 2
-3.504848e-01 -4.101916e-01 -1.923728e+00 138 87 33
-7.017059e-02 -3.766675e-01 -1.802061e+00 115 42 32
-6.842947e-02 -3.770603e-01 -1.807334e+00 115 42 32
-3.532593e-01 -3.959275e-01 -1.916959e+00 146 89 30
-1.985451e-01 -3.818501e-01 -1.846424e+00 79 18 1
-9.259377e-02 -3.716458e-01 -1.809019e+00 69 4 2
-1.935287e-01 -3.717474e-01 -1.837701e+00 77 13 1
-2.378189e-01 -3.668742e-01 -1.854442e+00 73 11 0
-6.984963e-02 -3.541083e-01 -1.793396e+00 116 34 21
-1.968770e-01 -3.516522e-01 -1.832665e+00 71 12 2
-1.884487e-03 -3.359364e-01 -1.788992e+00 74 2 2
-2.405926e-01 -3.510364e-01 -1.848382e+00 80 16 6
-1.978335e-01 -3.407622e-01 -1.833460e+00 74 8 3
-3.917326e-01 -3.399919e-01 -1.920392e+00 121 67 20
-2.006448e-01 -3.250664e-01 -1.827192e+00 73 14 0
-8.059101e-02 -3.141671e-01 -1.789725e+00 60 2 3
-2.080074e-01 -3.186043e-01 -1.833998e+00 84 28 6
-4.881049e-02 -3.045876e-01 -1.786092e+00 58 0 1
-1.070235e-01 -3.055073e-01 -1.796710e+00 63 3 3
-1.030974e-01 -2.976891e-01 -1.788690e+00 69 4 2
-3.700175e-01 -3.226542e-01 -1.693186e+00 123 77 35
5.068812e-01 -2.445402e-01 -1.703053e+00 79 67 38
4.457453e-01 -2.497308e-01 -1.676324e+00 49 51 30
-3.725389e-01 -3.050492e-01 -1.903422e+00 115 57 3
-3.036601e-02 -2.792040e-01 -1.775716e+00 121 55 49
-3.783722e-01 -2.719485e-01 -1.897094e+00 108 57 2
-2.012485e-01 -2.589655e-01 -1.812807e+00 80 21 0
-2.408954e-01 -2.487501e-01 -1.826661e+00 145 94 26
-2.044656e-01 -2.343801e-01 -1.806736e+00 85 20 4
-2.060104e-01 -2.278723e-01 -1.799563e+00 101 40 9
-1.401173e-01 -2.138059e-01 -1.785155e+00 159 98 53
-3.241620e-01 -2.207995e-01 -1.843027e+00 100 46 0
-3.115612e-01 -2.107240e-01 -1.845466e+00 77 39 1
-1.213785e-02 -1.694117e-01 -1.747863e+00 108 45 2
-3.241139e-01 -1.910040e-01 -1.842408e+00 138 86 28
-8.295828e-02 -1.739693e-01 -1.757395e+00 58 5 3
-1.725978e-01 -1.672545e-01 -1.782031e+00 118 42 4
-2.025519e-01 -1.698185e-01 -1.782504e+00 170 113 69
-2.026212e-01 -1.699019e-01 -1.782588e+00 170 113 69
-2.145085e-01 -1.628630e-01 -1.792075e+00 86 25 3
-1.110748e-01 -1.462507e-01 -1.750201e+00 126 72 20
-2.467110e-01 -1.523656e-01 -1.802820e+00 71 20 4
-2.252970e-01 -1.480544e-01 -1.791080e+00 78 32 8
-3.372405e-01 -1.480467e-01 -1.837234e+00 71 18 6
-4.331958e-01 -1.430237e-01 -1.909713e+00 134 102 56
-3.391061e-01 -1.374047e-01 -1.832828e+00 141 89 27
-2.459447e-01 -1.251253e-01 -1.795724e+00 63 7 1
-2.320597e-01 -1.244488e-01 -1.788023e+00 80 27 2
-4.030692e-01 -1.190643e-01 -1.865076e+00 105 61 3
-2.864987e-01 -1.095530e-01 -1.785219e+00 164 80 50
1.390277e-02 -7.546783e-02 -1.725789e+00 105 49 2
-1.574782e-01 -8.879247e-02 -1.757008e+00 61 8 0
-1.572396e-01 -8.840613e-02 -1.758473e+00 61 8 0
-1.740905e-01 -8.638167e-02 -1.764259e+00 123 73 27
-3.583345e-01 -9.127877e-02 -1.829070e+00 119 35 9
1.701175e-03 -5.500488e-02 -1.723301e+00 138 87 35
-1.467829e-01 -7.025872e-02 -1.752719e+00 117 30 0
-1.283375e-01 -6.904234e-02 -1.735752e+00 120 30 2
-3.640979e-01 -7.732127e-02 -1.823217e+00 122 35 5
-3.027627e-01 -1.894862e-02 -1.782947e+00 135 38 3
-1.753213e-01 1.980853e-02 -1.735765e+00 43 38 38
-1.410521e-01 1.919582e-01 -1.738059e+00 102 89 98
-3.040324e-01 1.948157e-01 -1.795887e+00 95 84 88
-1.726037e-01 2.070918e-01 -1.754280e+00 44 34 42
-3.426717e-01 2.076647e-01 -1.817847e+00 44 33 45
-2.439503e-01 2.093752e-01 -1.772087e+00 100 86 90
-1.791888e-01 2.274023e-01 -1.769351e+00 48 35 44
-1.873995e-01 2.257139e-01 -1.771333e+00 50 37 46
-4.763226e-01 2.235582e-01 -1.855823e+00 57 40 16
2.496818e-01 -4.783579e-01 -1.646531e+00 4 6 1
6.990035e-01 -6.137319e-01 -1.488692e+00 166 151 112
-1.670198e-01 -6.780674e-01 -1.798680e+00 37 91 30
-2.773354e-01 -7.030128e-01 -1.859913e+00 22 81 22
-1.710014e-01 -6.342715e-01 -1.795762e+00 33 92 35
-1.550160e-01 -6.254346e-01 -1.789462e+00 35 90 30
-3.707516e-02 -5.745650e-01 -1.697611e+00 159 182 124
-4.050159e-02 -5.662297e-01 -1.713707e+00 14 105 21
-3.558594e-01 -7.454559e-01 -1.844380e+00 136 149 105
-3.522428e-01 -7.391263e-01 -1.884338e+00 28 85 33
3.726464e-01 -5.972286e-01 -1.555792e+00 59 57 41
-1.455014e-01 -3.209451e-01 -1.807430e+00 132 60 28
-1.455014e-01 -3.209451e-01 -1.807430e+00 132 60 28
-2.817838e-01 -2.296014e-01 -1.826888e+00 99 41 0
-2.954738e-01 -1.971381e-01 -1.822576e+00 96 42 0
-2.954738e-01 -1.971381e-01 -1.822576e+00 96 42 0
-1.421291e-01 -1.579873e-01 -1.767850e+00 92 45 23
-1.714942e-01 -9.014917e-02 -1.753126e+00 80 36 20
-1.736998e-01 -9.334545e-02 -1.745859e+00 80 36 20
-2.861292e-01 1.482135e-01 -1.715595e+00 52 42 59
-3.641267e-01 2.220347e-01 -1.832978e+00 52 41 58
-2.523900e-01 -7.350057e-01 -1.831056e+00 148 139 91
-1.869314e-01 -7.091981e-01 -1.833354e+00 54 71 24
-1.901548e-01 -6.632870e-01 -1.823445e+00 187 212 147
1.417104e-01 -5.219961e-01 -1.689127e+00 13 31 0
5.561901e-01 -4.263598e-01 -1.521188e+00 39 29 5
-2.696223e-01 -3.049931e-01 -1.857728e+00 68 25 1
-1.153987e-01 -1.902525e-01 -1.778557e+00 75 27 12
-3.887961e-01 -1.867260e-01 -1.883257e+00 104 66 11
-1.591088e-01 -1.487826e-01 -1.767786e+00 141 81 16
-1.389895e-01 -1.229855e-01 -1.760470e+00 94 51 16
-1.316542e-01 -1.037618e-01 -1.748798e+00 60 25 8
-1.316542e-01 -1.037618e-01 -1.748798e+00 60 25 8
-3.002183e-01 -7.394812e-01 -1.863170e+00 173 197 127
1.619843e-01 -5.029797e-01 -1.673830e+00 15 42 15
1.839982e-01 -5.007860e-01 -1.679803e+00 93 110 73
-2.696818e-01 -4.855159e-01 -1.896007e+00 86 20 0
-2.872569e-01 -4.835201e-01 -1.913429e+00 94 41 2
-2.872569e-01 -4.835201e-01 -1.913429e+00 94 41 2
-3.134386e-02 -4.509736e-01 -1.805503e+00 78 4 3
-3.434306e-01 -4.490505e-01 -1.931641e+00 96 41 3
-1.838720e-01 -4.027662e-01 -1.841390e+00 131 65 13
-2.271601e-01 -3.837013e-01 -1.850825e+00 77 25 0
-4.297426e-02 -3.685611e-01 -1.808310e+00 60 0 0
-5.432800e-02 -3.656883e-01 -1.799786e+00 126 33 19
-9.808048e-02 -3.622897e-01 -1.804676e+00 137 39 20
-1.867610e-01 -3.645141e-01 -1.824792e+00 107 44 3
-3.504830e-02 -3.515748e-01 -1.802029e+00 66 7 5
-5.133314e-02 -3.477306e-01 -1.782273e+00 124 31 17
-5.133314e-02 -3.477306e-01 -1.782273e+00 124 31 17
-2.173776e-02 -3.443929e-01 -1.782826e+00 60 2 0
-4.519407e-02 -3.382359e-01 -1.785513e+00 73 1 1
-4.519407e-02 -3.382359e-01 -1.785513e+00 73 1 1
-3.344952e-02 -3.350775e-01 -1.787531e+00 64 3 2
1.364470e-01 -2.918945e-01 -1.759371e+00 37 31 19
-3.780728e-01 -2.513437e-01 -1.890349e+00 100 57 4
-3.523743e-01 -1.947325e-01 -1.856931e+00 139 91 28
-1.001999e-01 -1.419323e-01 -1.752063e+00 130 72 9
-4.352598e-01 -1.293561e-01 -1.917234e+00 135 95 52
-1.824181e-01 -1.091465e-01 -1.755808e+00 170 113 58
2.683234e-01 -6.371330e-01 -1.602249e+00 42 42 34
2.737013e-01 -6.399376e-01 -1.607185e+00 42 42 34
-2.260907e-01 -6.913415e-01 -1.840770e+00 40 58 2
2.922370e-01 -5.923115e-01 -1.593563e+00 78 79 68
6.967497e-01 -5.444614e-01 -1.484197e+00 97 89 60
8.996620e-02 -5.492135e-01 -1.712012e+00 123 139 92
1.803354e-01 -4.938009e-01 -1.673484e+00 12 54 5
5.557971e-01 -4.487743e-01 -1.498706e+00 63 58 47
3.451799e-01 -4.574611e-01 -1.610675e+00 61 61 51
2.403269e-01 -4.522823e-01 -1.641983e+00 33 79 21
-3.135320e-01 -4.941575e-01 -1.921759e+00 168 109 67
-2.204561e-01 -4.362037e-01 -1.859817e+00 136 75 24
-1.696795e-01 -3.811757e-01 -1.831850e+00 174 110 66
-1.431607e-01 -3.480754e-01 -1.815892e+00 117 27 1
-1.348000e-01 -3.165863e-01 -1.800048e+00 115 24 0
-3.191080e-02 -2.770780e-01 -1.783335e+00 66 0 0
-3.664520e-01 -2.788014e-01 -1.896170e+00 97 46 5
-3.548508e-01 -2.548531e-01 -1.909972e+00 151 99 32
-2.055905e-01 -2.349922e-01 -1.800388e+00 91 26 2
-3.457635e-01 -2.333717e-01 -1.860408e+00 80 38 0
-1.958394e-01 -2.136526e-01 -1.791121e+00 165 118 63
-2.563421e-03 -1.914941e-01 -1.742705e+00 145 59 36
-2.181304e-01 -1.369191e-01 -1.769142e+00 141 83 24
-2.860829e-01 -1.241045e-01 -1.783433e+00 159 104 44
-4.757411e-02 -7.752541e-02 -1.725814e+00 76 32 2
-8.358894e-02 -5.360937e-02 -1.737230e+00 120 33 2
-3.616372e-01 1.638444e-01 -1.807392e+00 116 106 96
-2.356299e-01 2.020137e-01 -1.761874e+00 102 91 96
3.186245e-01 -7.866166e-01 -1.643701e+00 67 65 50
-3.856737e-01 -7.995055e-01 -1.899180e+00 186 183 142
-3.486712e-01 -7.830212e-01 -1.895017e+00 46 98 46
-2.922251e-01 -7.344166e-01 -1.831864e+00 156 176 134
3.094341e-01 -6.467314e-01 -1.574937e+00 61 59 46
-3.024055e-01 -7.316019e-01 -1.855484e+00 25 75 1
-3.375500e-01 -7.407357e-01 -1.880599e+00 41 103 33
-3.073639e-01 -7.136704e-01 -1.837325e+00 68 150 65
-2.817885e-01 -7.030429e-01 -1.827142e+00 53 96 47
-2.862499e-01 -7.178517e-01 -1.865458e+00 177 211 153
-2.389254e-01 -6.930557e-01 -1.847752e+00 171 213 147
2.774253e-01 -5.909604e-01 -1.598880e+00 22 22 14
2.678218e-01 -5.857250e-01 -1.602807e+00 78 76 63
-7.194639e-02 -6.090506e-01 -1.764429e+00 26 78 3
1.025876e-01 -5.461238e-01 -1.704961e+00 100 102 61
1.219146e-02 -5.484652e-01 -1.725682e+00 49 140 45
7.378588e-02 -5.026985e-01 -1.710168e+00 44 78 14
2.093634e-01 -4.764733e-01 -1.666357e+00 152 178 134
-1.700872e-01 -4.916963e-01 -1.859036e+00 136 71 23
-2.156954e-01 -4.595818e-01 -1.872399e+00 142 80 36
-2.093138e-01 -4.516706e-01 -1.864828e+00 128 68 23
-2.361533e-01 -4.464072e-01 -1.873114e+00 144 75 23
-2.251886e-01 -4.454681e-01 -1.875646e+00 140 81 38
4.418371e-01 -3.843135e-01 -1.573242e+00 58 55 46
-3.872215e-01 -4.550228e-01 -1.988058e+00 127 80 38
-1.839347e-01 -4.283750e-01 -1.854954e+00 82 22 2
-1.484590e-01 -4.092278e-01 -1.833599e+00 160 72 42
-1.950934e-01 -4.111051e-01 -1.844067e+00 88 27 6
-1.885195e-01 -4.029852e-01 -1.846233e+00 78 12 1
-1.974653e-01 -3.961643e-01 -1.839943e+00 74 7 1
-7.291614e-02 -3.739479e-01 -1.819022e+00 119 36 21
-3.169940e-01 -3.763228e-01 -1.891801e+00 120 47 4
-3.169225e-01 -3.763608e-01 -1.888615e+00 120 47 4
-1.642584e-01 -3.614181e-01 -1.826492e+00 157 68 40
-4.130567e-03 -3.477849e-01 -1.783035e+00 64 2 1
-2.181875e-02 -3.410265e-01 -1.786684e+00 70 4 2
-2.582597e-01 -3.482105e-01 -1.847234e+00 106 39 8
-3.141060e-03 -3.187519e-01 -1.774037e+00 118 38 28
-2.540809e-01 -3.296362e-01 -1.850476e+00 141 82 18
-2.079420e-01 -3.256055e-01 -1.832148e+00 79 20 0
-1.631435e-01 -3.169500e-01 -1.804442e+00 132 37 12
-9.687754e-02 -2.975702e-01 -1.786902e+00 66 6 7
-4.774465e-02 -2.833393e-01 -1.788107e+00 123 41 24
1.384565e-02 -2.775350e-01 -1.769895e+00 113 34 22
-2.891589e-01 -2.974588e-01 -1.834760e+00 144 89 33
-3.228886e-01 -2.978211e-01 -1.870990e+00 110 47 6
-3.228886e-01 -2.978211e-01 -1.870990e+00 110 47 6
-3.219030e-01 -2.920977e-01 -1.866238e+00 111 49 0
3.459035e-01 -2.324629e-01 -1.680562e+00 84 80 66
-2.034292e-01 -2.555475e-01 -1.808567e+00 137 86 20
-2.286181e-01 -2.471957e-01 -1.809520e+00 139 90 22
-8.889676e-02 -2.368127e-01 -1.765477e+00 152 57 32
-1.355775e-01 -2.325219e-01 -1.777202e+00 159 73 39
-2.114842e-01 -2.302761e-01 -1.807577e+00 146 90 24
-3.419593e-01 -2.313347e-01 -1.855207e+00 148 102 44
-3.373769e-01 -2.191092e-01 -1.851651e+00 107 56 2
-3.512050e-01 -2.188591e-01 -1.864059e+00 102 49 0
-3.497205e-01 -2.042941e-01 -1.856866e+00 92 51 4
-9.815164e-02 -1.854618e-01 -1.758302e+00 70 17 0
-1.951064e-01 -1.896744e-01 -1.789946e+00 110 47 4
-3.750209e-01 -1.774437e-01 -1.858130e+00 110 60 0
3.633503e-02 -1.308165e-01 -1.754338e+00 152 92 47
-3.040084e-01 -1.503751e-01 -1.822889e+00 93 39 8
-3.067836e-01 -1.471520e-01 -1.820615e+00 144 96 41
-3.692598e-01 -1.484030e-01 -1.845121e+00 101 57 6
-1.803158e-01 -1.367397e-01 -1.764658e+00 125 40 9
-9.869883e-02 -1.007260e-01 -1.734348e+00 58 12 2
-3.945121e-01 -1.112328e-01 -1.856130e+00 118 66 4
-8.170312e-02 -9.510123e-02 -1.733677e+00 67 13 6
-4.006683e-01 -1.054384e-01 -1.862278e+00 101 53 3
-3.835022e-02 -7.303802e-02 -1.722805e+00 61 20 0
-3.838202e-01 -9.092659e-02 -1.848570e+00 157 81 49
-3.810122e-01 -8.841341e-02 -1.844837e+00 126 43 13
-3.654088e-01 -7.809014e-02 -1.833296e+00 123 42 7
-3.650268e-01 -7.990927e-02 -1.828152e+00 123 42 7
1.349385e-02 -2.617889e-02 -1.725413e+00 97 50 6
-3.598977e-01 1.091889e-01 -1.729184e+00 43 35 49
-2.884610e-01 1.950761e-01 -1.793935e+00 100 88 93
-2.772389e-01 1.918381e-01 -1.784301e+00 54 42 52
-4.802560e-01 2.024613e-01 -1.876454e+00 97 84 74
-4.538854e-01 2.641811e-01 -1.869297e+00 175 167 121
-1.607519e-01 2.700038e-01 -1.748584e+00 75 65 73
-3.669413e-01 -2.151082e-01 -1.887893e+00 126 72 0
-3.091289e-01 -7.043198e-01 -1.830676e+00 28 111 27
-1.777591e-01 -6.845787e-01 -1.813738e+00 20 100 19
6.448125e-03 -5.843322e-01 -1.737847e+00 28 92 23
-1.994226e-01 -7.043212e-01 -1.843680e+00 168 188 130
6.062441e-01 -3.904378e-01 -1.587714e+00 201 185 140
-2.490090e-01 -7.280381e-01 -1.834991e+00 54 98 33
-7.712415e-02 -2.096515e-01 -1.773767e+00 136 23 3
-1.454656e-01 -3.208928e-01 -1.807467e+00 137 63 24
-2.028691e-01 -3.219370e-01 -1.832653e+00 97 40 3
-1.140921e-01 -1.520917e-01 -1.756137e+00 96 42 11
-3.973792e-01 -7.662062e-02 -1.848574e+00 145 49 11
-3.973792e-01 -7.662062e-02 -1.848574e+00 145 49 11
-2.728787e-01 -7.017953e-01 -1.810105e+00 31 98 40
-2.652411e-02 -6.148999e-01 -1.756447e+00 55 75 4
-6.783946e-02 -3.588615e-01 -1.831408e+00 131 30 12
-1.951068e-01 -3.262984e-01 -1.825207e+00 149 92 11
-1.873851e-02 -2.911212e-01 -1.781445e+00 66 6 7
-2.974702e-01 -3.025030e-01 -1.849262e+00 93 40 6
-1.206968e-02 -2.463095e-01 -1.759534e+00 155 59 34
-1.209601e-01 -1.375963e-01 -1.745710e+00 90 37 6
-3.739132e-03 -7.543383e-02 -1.738777e+00 103 52 3
-3.695659e-01 -8.606245e-02 -1.834523e+00 147 48 16
-3.454960e-01 -7.492668e-01 -1.852494e+00 162 191 114
-2.801291e-01 -7.361922e-01 -1.834857e+00 152 169 108
-2.816454e-01 -7.301559e-01 -1.834115e+00 27 80 2
3.091848e-01 -6.636287e-01 -1.599931e+00 36 32 5
1.941472e-01 -5.939494e-01 -1.727273e+00 20 14 2
1.941472e-01 -5.939494e-01 -1.727273e+00 20 14 2
-2.432731e-01 -5.100148e-01 -1.896355e+00 173 115 68
2.346770e-01 -4.269053e-01 -1.636929e+00 150 112 60
3.470192e-01 -3.880024e-01 -1.619121e+00 108 103 81
3.407863e-01 -3.873550e-01 -1.614241e+00 108 103 81
-6.459614e-02 -2.526465e-01 -1.757767e+00 159 69 37
-2.042073e-01 -2.333240e-01 -1.809976e+00 108 46 0
-3.799858e-01 -2.053451e-01 -1.869775e+00 122 70 0
-4.465278e-02 -1.560866e-01 -1.755671e+00 82 25 2
-3.857968e-01 -1.732061e-01 -1.866700e+00 118 69 1
-5.100816e-02 -1.136570e-01 -1.757967e+00 84 22 0
-1.676216e-01 -1.069610e-01 -1.753333e+00 71 9 4
-1.689649e-01 -1.077120e-01 -1.749083e+00 71 9 4
-5.694774e-02 -5.017457e-02 -1.726271e+00 171 117 55
-4.427254e-01 1.782640e-01 -1.829631e+00 113 96 92
-3.768460e-01 -7.452628e-01 -1.858940e+00 173 204 146
-2.852129e-01 -7.201686e-01 -1.869057e+00 182 224 160
-2.309746e-01 -7.046551e-01 -1.862244e+00 51 103 46
-2.115020e-01 -6.463644e-01 -1.798630e+00 187 208 170
-8.192971e-02 -5.832768e-01 -1.762978e+00 65 101 54
8.781315e-02 -5.432974e-01 -1.716068e+00 24 80 4
6.460912e-01 -4.675703e-01 -1.531156e+00 44 32 10
-2.204865e-01 -4.569650e-01 -1.866776e+00 100 33 1
-3.051731e-01 -4.590084e-01 -1.921388e+00 152 91 24
-1.982771e-01 -4.137895e-01 -1.845479e+00 143 84 23
-1.674214e-01 -3.472409e-01 -1.822559e+00 167 77 42
-3.665035e-01 -3.383853e-01 -1.922544e+00 120 60 2
-3.151263e-02 -2.401327e-01 -1.763971e+00 151 62 34
-3.151263e-02 -2.401327e-01 -1.763971e+00 151 62 34
8.508105e-03 -1.615507e-01 -1.757012e+00 155 86 43
-3.917114e-01 -1.842834e-01 -1.874054e+00 112 71 2
-3.246075e-01 -1.791327e-01 -1.828384e+00 154 107 36
-1.749069e-01 -1.514218e-01 -1.766833e+00 180 124 64
-2.874002e-01 -1.500503e-01 -1.805385e+00 155 105 47
-4.338208e-01 -1.310036e-01 -1.903736e+00 144 109 59
-2.724511e-01 -2.205735e-02 -1.784906e+00 189 80 38
-3.084525e-01 2.411354e-01 -1.957177e+00 43 43 55
-4.664507e-01 2.000357e-01 -1.815068e+00 67 51 30
2.697867e-01 -7.512259e-01 -1.631229e+00 77 73 44
-3.727552e-01 -7.718147e-01 -1.859294e+00 24 76 2
-2.147604e-01 -6.888581e-01 -1.807044e+00 55 102 56
-1.027227e-01 -6.142029e-01 -1.773016e+00 54 130 58
1.690437e-01 -5.397399e-01 -1.703670e+00 59 53 37
1.585508e-01 -5.034459e-01 -1.678173e+00 40 83 38
1.409276e-01 -4.824060e-01 -1.688337e+00 38 90 6
1.423573e-01 -4.576194e-01 -1.662604e+00 63 113 45
-2.149536e-02 -4.523551e-01 -1.815552e+00 128 33 22
-1.984874e-02 -4.532308e-01 -1.819870e+00 128 33 22
-9.892535e-03 -4.478360e-01 -1.806191e+00 117 31 19
-2.246375e-01 -4.593483e-01 -1.868877e+00 154 91 42
-1.926642e-01 -4.579186e-01 -1.865641e+00 118 47 4
-1.176639e-02 -4.413192e-01 -1.802137e+00 119 33 18
-6.552984e-02 -3.801104e-01 -1.815300e+00 136 43 31
-1.493240e-01 -3.732885e-01 -1.827302e+00 173 78 45
-1.635362e-02 -3.451930e-01 -1.808948e+00 124 42 28
-1.710758e-02 -3.453849e-01 -1.806718e+00 124 42 28
-9.611633e-02 -3.022187e-01 -1.790081e+00 77 3 2
-1.445749e-02 -2.943856e-01 -1.787872e+00 76 1 0
2.597721e-04 -2.744520e-01 -1.783914e+00 128 39 25
-3.187893e-01 -2.549987e-01 -1.848536e+00 109 53 4
-1.256798e-01 -2.301637e-01 -1.779549e+00 172 75 40
-2.054454e-01 -2.270616e-01 -1.804650e+00 116 56 2
-3.000028e-03 -1.941100e-01 -1.759851e+00 153 64 38
-3.601937e-01 -2.127222e-01 -1.866473e+00 154 103 33
-3.211512e-01 -1.747304e-01 -1.834554e+00 119 70 2
-2.505515e-01 -1.331015e-01 -1.777884e+00 145 81 20
-1.662868e-01 -1.108357e-01 -1.752624e+00 73 14 0
-3.625362e-01 -9.057744e-02 -1.836412e+00 164 85 51
-3.086084e-02 -6.838366e-02 -1.708035e+00 147 94 31
1.300448e-02 -5.129733e-02 -1.709822e+00 171 111 57
1.240938e-02 -2.117020e-02 -1.722669e+00 121 68 7
-2.009069e-01 8.552007e-03 -1.716998e+00 53 52 64
-2.009069e-01 8.552007e-03 -1.716998e+00 53 52 64
-1.841393e-01 1.996238e-02 -1.726448e+00 13 10 22
-1.719250e-01 1.243250e-01 -1.710864e+00 50 50 62
-1.279353e-01 3.127083e-01 -1.779391e+00 97 84 92
-2.768258e-01 2.938963e-01 -1.812258e+00 113 101 101
-9.568064e-02 -3.850205e-02 -1.726742e+00 143 27 2
-3.388566e-02 -5.644046e-01 -1.734263e+00 33 135 33
-2.939653e-01 -6.862568e-01 -1.818436e+00 31 92 22
-1.327003e-01 -6.283775e-01 -1.763013e+00 182 191 133
-2.298636e-01 -1.411857e-01 -1.782187e+00 155 88 3
6.192546e-02 9.952393e-02 -1.762368e+00 157 67 20
-5.908281e-02 -3.765781e-01 -1.813958e+00 70 1 2
-3.740599e-01 -1.539312e-01 -1.873410e+00 153 105 28
-6.105695e-02 -1.267096e-01 -1.757227e+00 139 76 5
-3.397640e-01 -1.173081e-01 -1.759474e+00 172 103 67
2.140713e-01 -6.438522e-01 -1.681615e+00 21 18 2
7.268903e-02 -4.539750e-01 -1.850396e+00 34 0 0
-2.270088e-01 -3.319729e-01 -1.854676e+00 163 104 27
-2.758192e-03 -3.024015e-01 -1.799467e+00 79 0 1
2.546849e-02 -2.685742e-01 -1.783563e+00 84 0 3
-1.067188e-01 -2.299309e-01 -1.782035e+00 167 74 38
-1.067188e-01 -2.299309e-01 -1.782035e+00 167 74 38
6.062826e-02 -1.568050e-01 -1.776580e+00 173 108 66
-3.009498e-01 -1.141452e-01 -1.803941e+00 141 38 7
-9.619513e-02 -3.540572e-01 -1.805793e+00 79 0 4
-2.856847e-01 -2.460710e-01 -1.819118e+00 88 44 0
-1.930408e-01 -2.258911e-01 -1.819674e+00 149 93 26
-4.306075e-01 -7.775629e-02 -1.869150e+00 129 61 13
-1.206027e-01 -6.054363e-02 -1.755890e+00 137 42 2
-2.143767e-01 -3.246992e-02 -1.457146e+00 41 43 56
-1.921348e-01 -6.504274e-01 -1.775968e+00 48 122 53
1.819763e-01 -6.123320e-01 -1.720000e+00 44 37 15
-5.036424e-02 -5.823261e-01 -1.728106e+00 56 103 45
7.441311e-02 -5.138042e-01 -1.690078e+00 125 195 112
1.598194e-01 -4.763160e-01 -1.677725e+00 57 118 34
2.324485e-01 -4.282029e-01 -1.639840e+00 144 120 56
6.384464e-02 -4.541285e-01 -1.845892e+00 84 28 21
-1.696790e-01 -4.174632e-01 -1.832804e+00 149 85 22
-3.872252e-01 -3.362645e-01 -1.946740e+00 123 43 0
-1.927838e-01 -2.412927e-01 -1.813244e+00 150 100 32
-4.221615e-01 -1.489569e-01 -1.913041e+00 166 101 53
-1.282262e-01 -1.035055e-01 -1.757649e+00 75 27 8
-3.931106e-01 2.088562e-01 -1.828212e+00 51 36 48
-1.736042e-01 2.423901e-01 -1.789250e+00 61 44 55
-3.550838e-01 -7.479370e-01 -1.832424e+00 21 107 26
-3.032457e-03 -4.358596e-01 -1.861383e+00 140 35 15
-1.116588e-01 -3.758502e-01 -1.827780e+00 105 21 12
-5.871907e-02 -1.353273e-01 -1.754556e+00 76 18 0
-3.775334e-01 -1.062130e-01 -1.840487e+00 184 139 72
1.546035e-01 -5.202387e-01 -1.837099e+00 62 55 41
2.568575e-01 -4.548718e-01 -1.639690e+00 88 77 60
-1.931128e-01 -4.128439e-01 -1.852645e+00 82 14 0
-2.188695e-01 -3.809826e-01 -1.831846e+00 101 37 5
-2.193525e-01 -3.670674e-01 -1.841126e+00 103 40 3
-2.868060e-01 -3.325955e-01 -1.424362e+00 93 24 15
-7.744075e-02 -1.775557e-01 -1.765647e+00 143 88 23
-9.349220e-02 -6.660798e-01 -1.773038e+00 198 174 134
1.071566e-02 -5.480718e-01 -1.788625e+00 184 161 118
-1.810197e-01 -6.366912e-01 -1.787556e+00 25 120 26
-1.506966e-01 -3.181980e-01 -1.808707e+00 194 113 76
-2.344049e-01 -6.597949e-01 -1.801431e+00 27 113 30
3.564043e-01 -5.480365e-01 -1.507324e+00 72 71 49
3.258912e-01 -5.660015e-01 -1.515641e+00 66 65 46
3.258912e-01 -5.660015e-01 -1.515641e+00 66 65 46
-1.974401e-02 -5.784166e-01 -1.723700e+00 19 109 13
3.739107e-02 -5.140304e-01 -1.671446e+00 45 137 33
-3.504465e-01 -7.316503e-01 -1.831873e+00 29 117 4
-2.651240e-01 -7.291491e-01 -1.818533e+00 148 143 90
6.379016e-01 -6.345572e-01 -1.482524e+00 67 62 20
7.434488e-02 -5.320202e-01 -1.676341e+00 33 59 6
2.779034e-01 -2.340484e-01 -1.769239e+00 42 35 20
1.904299e-02 -1.907081e-02 -1.757656e+00 116 67 12
-3.889303e-01 -7.510255e-01 -1.842746e+00 28 105 18
-3.110816e-01 -7.465614e-01 -1.827777e+00 128 145 79
-3.290873e-01 -7.371420e-01 -1.823849e+00 25 101 12
2.076432e-01 -5.756304e-01 -1.602090e+00 69 67 52
2.076432e-01 -5.756304e-01 -1.602090e+00 69 67 52
-1.885266e-01 -5.184307e-01 -1.899105e+00 173 107 61
-1.023152e-01 -2.065402e-01 -1.775630e+00 173 121 72
-2.224217e-01 -1.608333e-01 -1.785467e+00 166 110 28
1.781380e-03 -1.068407e-01 -1.747786e+00 120 65 7
-1.818289e-01 1.906966e-01 -1.747652e+00 57 45 69
-3.551398e-01 -7.690964e-01 -1.844174e+00 114 141 79
-3.903982e-01 -7.447555e-01 -1.841623e+00 62 114 23
2.485478e-01 -6.270446e-01 -1.533851e+00 67 67 55
-1.303449e-01 -6.115206e-01 -1.755585e+00 114 201 103
-1.303449e-01 -6.115206e-01 -1.755585e+00 114 201 103
-2.506993e-02 -5.669341e-01 -1.720099e+00 94 185 86
1.149460e-02 -5.263971e-01 -1.713982e+00 200 211 168
5.813531e-02 -5.035551e-01 -1.699982e+00 203 223 162
1.038487e-01 -4.798304e-01 -1.698683e+00 23 19 0
1.571777e-01 -4.551438e-01 -1.684352e+00 19 12 0
1.981313e-01 -4.336763e-01 -1.647729e+00 17 82 19
-2.130374e-01 -4.249553e-01 -1.867096e+00 150 78 18
-2.417614e-01 -3.866864e-01 -1.881333e+00 105 34 3
-1.298872e-01 -2.124742e-01 -1.791106e+00 177 116 66
-3.948053e-01 -7.455622e-01 -1.843222e+00 206 220 155
-4.137240e-02 -5.501040e-01 -1.710354e+00 88 169 76
6.397640e-03 -5.282295e-01 -1.720953e+00 180 172 132
6.233407e-02 -5.074694e-01 -1.672637e+00 92 173 84
-2.347006e-01 -4.011140e-01 -1.877198e+00 166 104 41
-2.347006e-01 -4.011140e-01 -1.877198e+00 166 104 41
-2.394994e-01 -4.017919e-01 -1.881944e+00 99 30 3
-2.396659e-01 -4.014743e-01 -1.882162e+00 99 30 3
-2.575653e-01 -3.545190e-01 -1.876169e+00 165 98 26
-2.245859e-01 -3.276284e-01 -1.838973e+00 83 20 3
-2.106791e-01 -3.216091e-01 -1.837025e+00 164 107 35
-8.418822e-02 -3.174227e-01 -1.798856e+00 72 0 1
-8.671647e-02 -3.007276e-01 -1.812713e+00 74 0 0
-2.779402e-01 -3.022382e-01 -1.842999e+00 107 53 5
-2.049800e-01 -2.782745e-01 -1.817088e+00 174 128 54
-2.169161e-01 -2.607841e-01 -1.819815e+00 174 123 45
-1.560764e-02 -2.496251e-01 -1.780321e+00 158 58 32
-3.624566e-01 -2.515101e-01 -1.895070e+00 168 112 37
-2.644273e-01 -2.477040e-01 -1.834019e+00 95 50 1
-2.845508e-01 -2.456832e-01 -1.830671e+00 91 45 0
-1.410186e-01 -1.938002e-01 -1.786616e+00 100 43 3
-2.867773e-01 -1.519355e-01 -1.803859e+00 181 131 55
-3.912831e-01 -7.531238e-01 -1.838889e+00 135 152 78
-3.505757e-01 -7.337711e-01 -1.832619e+00 44 113 5
-2.929288e-01 -6.924428e-01 -1.813427e+00 44 123 40
-8.097076e-02 -5.774354e-01 -1.749804e+00 81 113 66
2.602256e-01 -4.954302e-01 -1.607061e+00 74 72 57
1.450277e-01 -5.186562e-01 -1.829528e+00 32 20 6
-3.459796e-01 -4.432797e-01 -1.946458e+00 160 106 36
-3.452843e-01 -4.447384e-01 -1.953206e+00 160 106 36
-3.472418e-01 -4.286313e-01 -1.941514e+00 167 107 38
-2.436369e-01 -4.035624e-01 -1.882697e+00 163 85 29
-1.143184e-01 -3.598904e-01 -1.806446e+00 140 49 33
-1.402660e-01 -3.550125e-01 -1.819234e+00 169 75 41
-2.573601e-01 -3.556237e-01 -1.853079e+00 106 37 0
-2.071511e-01 -3.256372e-01 -1.833881e+00 89 27 0
-2.499974e-01 -3.256032e-01 -1.834132e+00 111 56 2
-2.013638e-01 -3.238256e-01 -1.824346e+00 91 31 5
-2.541645e-01 -3.257899e-01 -1.854402e+00 100 38 1
-7.983990e-02 -3.131764e-01 -1.792195e+00 76 3 0
-7.536054e-02 -3.064411e-01 -1.787065e+00 102 7 1
-7.714190e-02 -2.920936e-01 -1.802453e+00 86 3 3
-3.603948e-01 -2.821810e-01 -1.880683e+00 110 63 5
-4.095829e-01 -2.438816e-01 -1.938631e+00 141 81 36
-2.371566e-01 -2.123679e-01 -1.812384e+00 96 44 13
-8.865221e-02 -1.922098e-01 -1.758367e+00 138 79 25
-1.297931e-01 -1.906717e-01 -1.779303e+00 153 94 28
-3.235319e-01 -1.947182e-01 -1.829427e+00 164 107 32
-3.235319e-01 -1.947182e-01 -1.829427e+00 164 107 32
-1.274286e-01 -1.800577e-01 -1.782127e+00 87 29 2
-1.274286e-01 -1.800577e-01 -1.782127e+00 87 29 2
-3.919668e-01 -1.851570e-01 -1.869666e+00 119 75 6
-2.513552e-01 -1.504174e-01 -1.784795e+00 98 41 5
-9.637849e-02 -1.245490e-01 -1.752982e+00 86 22 10
-2.293490e-01 -1.319501e-01 -1.770782e+00 174 120 49
-1.678031e-01 -1.074253e-01 -1.763231e+00 143 87 25
-1.049121e-01 -9.382474e-02 -1.736139e+00 64 15 2
-3.348157e-01 -2.264679e-02 -1.781911e+00 174 73 32
-1.940486e-01 2.274731e-01 -1.774274e+00 61 48 58
-1.940486e-01 2.274731e-01 -1.774274e+00 61 48 58
1.636647e-01 -2.881446e-01 -1.882387e+00 207 189 151
-3.318805e-01 -6.938240e-01 -1.798375e+00 164 178 113
-2.183908e-01 -6.560922e-01 -1.755443e+00 185 203 149
-1.200537e-01 -5.874584e-01 -1.743573e+00 30 101 24
3.259117e-01 -4.021491e-01 -1.658653e+00 20 16 1
-1.092182e-01 -2.084537e-01 -1.804580e+00 168 116 66
-8.231299e-02 -6.090883e-02 -1.718250e+00 165 112 42
-2.280522e-01 -3.552638e-01 -1.859977e+00 101 44 1
-2.277279e-01 -1.658574e-01 -1.787048e+00 114 52 16
-1.173601e-01 -1.347712e-01 -1.756957e+00 99 39 6
-3.901460e-01 -1.336005e-01 -1.878707e+00 157 114 36
-1.261500e-02 -9.692041e-02 -1.754441e+00 109 51 1
-9.805830e-02 -6.307188e-02 -1.741203e+00 164 110 41
2.238055e-01 -4.296922e-01 -1.653564e+00 18 95 4
-2.179196e-01 -4.179089e-01 -1.874086e+00 93 27 1
-2.445836e-01 -3.835801e-01 -1.864967e+00 109 38 3
-2.240604e-01 -3.491981e-01 -1.855620e+00 157 94 26
-6.480250e-02 -3.030133e-01 -1.804778e+00 143 40 19
1.681202e-01 -2.959652e-01 -1.816449e+00 46 34 25
-1.960211e-01 -2.801775e-01 -1.828089e+00 86 29 10
-2.035279e-01 -2.477536e-01 -1.808389e+00 93 42 7
-2.035279e-01 -2.477536e-01 -1.808389e+00 93 42 7
-3.769626e-01 -1.777898e-01 -1.866674e+00 126 74 1
-2.843101e-01 -3.405749e-02 -1.752243e+00 193 83 34
-3.018142e-01 -2.969001e-02 -1.761175e+00 220 122 73
-3.018142e-01 -2.969001e-02 -1.761175e+00 220 122 73
-1.289656e-01 1.979583e-01 -1.716875e+00 112 97 98
-2.143572e-01 -4.936508e-01 -1.896304e+00 105 41 2
-3.211964e-01 -4.771428e-01 -1.976089e+00 157 99 26
-2.040357e-01 -4.383247e-01 -1.874666e+00 79 14 0
-2.417902e-01 -3.549736e-01 -1.874469e+00 163 103 36
-3.979392e-02 -3.701202e-01 -1.830527e+00 134 38 24
-1.090536e-01 -3.618699e-01 -1.821112e+00 149 59 36
-9.763355e-02 -3.173319e-01 -1.819124e+00 77 4 4
-2.994854e-01 -2.993848e-01 -1.849929e+00 102 49 6
-2.200688e-01 -2.621790e-01 -1.845321e+00 150 85 25
-3.671576e-01 -1.440159e-01 -1.854334e+00 163 112 32
-1.922686e-01 6.427809e-03 -1.712940e+00 42 28 35
7.308702e-01 -5.797813e-01 -1.489886e+00 192 177 138
-1.893632e+00 7.850385e-01 -3.029871e+00 73 93 112
6.364723e-01 -4.657838e-01 -1.530529e+00 40 34 20
-1.910203e+00 6.740608e-01 -2.990154e+00 67 85 99
-1.910203e+00 6.740608e-01 -2.990154e+00 67 85 99
-2.073527e+00 8.260675e-01 -3.022165e+00 147 132 106
-1.645942e-01 -1.008631e-01 -1.747739e+00 144 86 5
-1.943133e+00 8.336406e-01 -3.127059e+00 166 150 126
-2.037656e+00 7.677065e-01 -3.002211e+00 137 126 110
7.143152e-01 -6.462017e-01 -1.504733e+00 176 167 116
-2.756362e-01 2.142216e-01 -1.809089e+00 62 52 76
-1.837752e+00 7.219494e-01 -2.939341e+00 134 128 115
-2.183377e+00 8.137961e-01 -3.172320e+00 158 144 119
4.911210e-01 -5.225084e-01 -1.522324e+00 101 99 72
-3.791838e-01 -1.096020e-01 -1.842832e+00 98 43 3
-2.019034e-01 2.149483e-01 -1.777446e+00 61 48 66
-2.883940e-01 2.017535e-01 -1.792144e+00 61 49 72
-2.883940e-01 2.017535e-01 -1.792144e+00 61 49 72
-2.124305e+00 7.655255e-01 -3.115586e+00 90 79 48
6.943707e-01 -5.496681e-01 -1.483311e+00 29 26 8
9.608146e-02 -4.902604e-01 -1.697643e+00 35 118 35
5.381189e-01 -4.239181e-01 -1.510857e+00 55 42 14
-3.428931e-02 -4.675803e-01 -1.833646e+00 134 36 16
-4.104065e-01 -8.973410e-02 -1.872231e+00 176 109 47
-4.867247e-01 2.117882e-01 -1.900284e+00 34 17 5
1.277788e+00 6.620750e-01 -1.570138e+00 118 107 87
2.584710e-01 -5.876751e-01 -1.630188e+00 77 75 62
-8.670439e-02 -2.201165e-01 -1.788608e+00 179 78 46
6.827000e-01 -5.263227e-01 -1.482095e+00 117 105 66
1.047162e-01 -5.484445e-01 -1.725259e+00 22 68 7
1.563066e-01 -5.536236e-01 -1.741699e+00 19 22 3
1.814220e-01 -5.050956e-01 -1.681693e+00 34 53 30
5.458698e-01 -4.466626e-01 -1.493574e+00 72 67 49
3.777383e-01 -4.364263e-01 -1.600781e+00 61 59 46
2.162520e-01 -4.337151e-01 -1.647233e+00 190 217 143
1.924469e-01 -4.346620e-01 -1.658337e+00 190 211 141
5.740127e-01 -3.967992e-01 -1.571510e+00 90 77 45
-3.532583e-01 -4.435798e-01 -1.931331e+00 178 111 57
1.081281e-01 -3.312157e-01 -1.751929e+00 51 44 36
-1.496098e-01 -3.025482e-01 -1.821516e+00 179 82 46
-3.833083e-01 -2.710710e-01 -1.905745e+00 192 127 73
-3.588798e-01 -2.031563e-01 -1.882830e+00 158 110 34
-2.338335e-01 -1.850916e-01 -1.799095e+00 123 68 0
-1.749358e-01 2.006821e-01 -1.762826e+00 50 37 53
-4.768486e-01 2.444622e-01 -1.879341e+00 65 48 27
1.777056e-01 -5.598408e-01 -1.636909e+00 27 25 13
2.543668e-01 -4.826681e-01 -1.654535e+00 5 7 2
-6.244322e-02 -6.229552e-01 -1.715005e+00 173 156 113
7.618726e-02 -4.786563e-01 -1.688191e+00 40 39 19
7.102702e-01 -6.659360e-01 -1.499677e+00 178 162 126
-9.385935e-02 -5.538877e-01 -1.664907e+00 18 90 15
-4.555763e-02 -5.383844e-01 -1.659969e+00 20 93 17
-7.541763e-03 -5.353387e-01 -1.701879e+00 16 91 12
3.385943e-02 -5.107219e-01 -1.686949e+00 13 87 11
5.633502e-01 -3.942044e-01 -1.579636e+00 17 18 9
-9.652054e-02 -7.739213e-02 -1.766353e+00 145 81 11
2.076624e-01 -4.902321e-01 -1.656089e+00 0 5 0
4.966111e-02 -1.356731e-01 -1.834670e+00 112 58 12
1.363437e-01 -1.178731e-01 -1.894362e+00 157 103 56
-6.100960e-02 -5.916302e-01 -1.691300e+00 173 157 113
-1.042497e-01 -5.324126e-01 -1.674740e+00 37 109 25
1.265043e-01 -5.426530e-01 -1.688348e+00 36 38 20
-4.734234e-01 1.006970e-01 -1.938751e+00 211 197 157
-2.456473e-01 -6.358450e-01 -1.704822e+00 24 91 19
2.778176e-01 -4.985543e-01 -1.463921e+00 73 72 54
2.778176e-01 -4.985543e-01 -1.463921e+00 73 72 54
8.998725e-02 -5.099945e-01 -1.669672e+00 201 218 162
1.938883e-01 -4.652743e-01 -1.642008e+00 123 142 91
1.832164e-01 -4.529823e-01 -1.642141e+00 20 93 16
2.076303e-01 -4.362563e-01 -1.660470e+00 197 207 159
2.255283e-01 -4.307620e-01 -1.659750e+00 32 114 29
3.372032e-01 -4.037268e-01 -1.650943e+00 20 9 2
2.234733e-01 -3.901038e-01 -2.032706e+00 101 8 0
2.709520e-01 -3.853839e-01 -2.043055e+00 17 7 1
-1.326450e-01 -1.059682e-01 -1.751857e+00 78 27 1
-1.326450e-01 -1.059682e-01 -1.751857e+00 78 27 1
-1.145925e-01 -1.761660e-01 -1.781580e+00 103 40 11
2.983787e-01 -3.634363e-01 -2.119958e+00 114 29 2
4.992123e-01 -3.887053e-01 -1.667140e+00 71 68 59
4.992123e-01 -3.887053e-01 -1.667140e+00 71 68 59
7.715969e-02 -1.283070e-01 -1.857407e+00 163 112 57
6.161004e-02 -1.260334e-01 -1.845263e+00 87 28 0
1.020684e-01 -1.170067e-01 -1.864098e+00 129 78 21
1.978986e-01 -4.421152e-01 -1.671573e+00 13 29 2
4.972124e-01 -3.684798e-01 -1.660747e+00 101 99 86
-1.817960e-01 -1.979337e-01 -1.810982e+00 168 82 47
6.216912e-02 4.114208e-02 -1.788493e+00 189 140 95
-1.371518e-01 -6.230487e-01 -1.794798e+00 20 84 22
-1.989809e+00 5.091859e-01 -2.839329e+00 49 58 58
-2.777117e-01 -7.033226e-01 -1.859883e+00 20 78 25
6.834835e-01 -5.157731e-01 -1.492521e+00 178 164 126
-7.103876e-02 -1.197504e-01 -1.754579e+00 70 26 1
-2.151682e+00 7.461686e-01 -3.115570e+00 117 106 81
1.185270e-01 -5.494865e-01 -1.712038e+00 101 97 57
-2.322518e-01 -4.435478e-01 -1.878847e+00 89 24 0
-3.485601e-01 -2.002804e-01 -1.862357e+00 95 52 18
6.882893e-01 -5.334218e-01 -1.483712e+00 58 53 22
-1.704534e-01 -1.113937e-01 -1.757205e+00 122 68 19
-1.701852e-01 -6.042568e-01 -1.741974e+00 181 175 138
2.587704e-01 -5.004276e-01 -1.609348e+00 78 76 63
1.634737e-01 -4.630670e-01 -1.647349e+00 46 82 25
1.827804e-01 -4.552850e-01 -1.671906e+00 18 52 1
2.206301e-01 -4.401250e-01 -1.640202e+00 170 192 138
-6.794747e-02 -3.045287e-01 -1.809357e+00 87 3 5
-2.633644e-01 -3.022686e-01 -1.853141e+00 77 19 4
4.018250e-01 -1.793783e-01 -1.790917e+00 81 75 58
-3.002182e-01 -3.386570e-02 -1.758932e+00 227 144 102
1.903033e-02 2.385008e-01 -1.718397e+00 126 115 96
-2.208383e+00 7.636298e-01 -3.195614e+00 52 46 36
-2.956917e-01 -7.593526e-01 -1.866891e+00 46 83 33
7.209275e-01 -6.290487e-01 -1.502272e+00 160 147 105
-2.116472e+00 7.137459e-01 -3.047610e+00 129 117 91
-2.015541e+00 7.888018e-01 -3.061430e+00 119 112 87
-2.039440e+00 7.160272e-01 -3.049856e+00 133 122 98
-2.148102e+00 7.817032e-01 -3.169062e+00 95 83 57
-2.062397e+00 7.331725e-01 -3.054145e+00 130 119 92
7.175993e-01 -7.353386e-01 -1.530133e+00 26 21 0
6.443194e-02 -4.913707e-01 -1.688757e+00 84 85 51
-2.996070e-01 -1.105324e-01 -1.836994e+00 151 100 38
-3.242856e-01 -1.765275e-01 -1.826058e+00 144 96 41
-1.794686e+00 7.113283e-01 -2.864133e+00 44 63 69
2.430568e-01 -5.930756e-01 -1.634888e+00 78 78 66
-1.841995e-01 2.797581e-02 -1.750835e+00 96 89 93
-2.917034e-01 -4.758040e-01 -1.908331e+00 141 80 33
-3.627211e-01 -4.517550e-01 -1.905180e+00 119 41 9
-3.626543e-01 -4.521712e-01 -1.907308e+00 119 41 9
3.633441e-01 -3.759526e-01 -1.626989e+00 53 50 41
-3.208490e-01 -1.737939e-01 -1.830863e+00 102 49 0
-1.458970e-01 -3.721687e-01 -1.840254e+00 164 74 47
-2.142317e-01 -2.119725e-01 -1.804564e+00 152 105 45
-3.329435e-01 -1.488087e-01 -1.826861e+00 136 85 29
4.802749e-01 -5.265093e-01 -1.531276e+00 65 58 49
-1.092656e-01 -3.692135e-01 -1.832082e+00 81 2 2
-1.192846e-01 -3.518906e-01 -1.829892e+00 169 83 56
-1.031178e-01 -1.410889e-01 -1.761542e+00 132 72 24
-3.059124e-01 -7.284130e-01 -1.892126e+00 30 94 34
4.803792e-01 -5.031749e-01 -1.499962e+00 78 76 55
-2.481517e-03 -3.536289e-01 -1.834337e+00 130 34 12
-1.861272e-01 2.149682e-01 -1.763260e+00 111 97 98
-1.861272e-01 2.149682e-01 -1.763260e+00 111 97 98
-4.464011e-01 -6.831034e-02 -1.906095e+00 148 115 64
-1.623266e-01 3.358576e-01 -1.826283e+00 26 22 39
5.251468e-01 -4.302974e-01 -1.495615e+00 48 42 27
-1.752077e-01 -2.658764e-01 -1.810610e+00 183 97 60
-2.622238e-01 2.704700e-01 -1.785206e+00 82 72 72
-7.794681e-02 -1.832643e-01 -1.779004e+00 85 38 10
-2.275729e-01 -3.313839e-01 -1.853261e+00 163 104 27
-3.240366e-01 -2.534069e-01 -1.870988e+00 90 37 0
-3.240366e-01 -2.534069e-01 -1.870988e+00 90 37 0
3.048624e-02 -3.260342e-01 -1.840051e+00 133 41 29
3.048624e-02 -3.260342e-01 -1.840051e+00 133 41 29
-5.034267e-02 -5.428155e-01 -1.691440e+00 116 189 100
-1.018490e-01 -1.239827e-01 -1.755967e+00 154 94 25
-6.801857e-02 -9.108802e-02 -1.748042e+00 102 36 0
-7.314858e-02 -6.514207e-01 -1.775661e+00 199 178 135
-3.216610e-01 -7.216011e-01 -1.861267e+00 32 110 28
-1.367487e-01 -6.229743e-01 -1.792125e+00 25 109 24
8.990165e-02 -5.368859e-01 -1.674170e+00 118 104 65
3.527428e-01 -5.889667e-01 -1.543178e+00 63 62 44
4.533966e-01 -5.131836e-01 -1.502896e+00 90 84 60
4.533966e-01 -5.131836e-01 -1.502896e+00 90 84 60
4.573101e-02 -5.672699e-01 -1.716531e+00 56 78 9
2.955275e-02 -5.248943e-01 -1.668506e+00 177 196 140
1.313920e-01 -4.697738e-01 -1.682680e+00 33 117 26
5.346480e-01 -4.284191e-01 -1.502778e+00 55 48 22
2.253388e-01 -4.197566e-01 -1.649227e+00 53 124 39
2.099162e-01 -5.551172e-01 -1.540978e+00 80 79 61
3.320282e-01 -4.538740e-01 -1.600975e+00 64 62 48
2.377736e-01 -4.271931e-01 -1.640391e+00 166 125 66
3.409685e-01 -3.980534e-01 -1.623298e+00 36 29 19
-7.847575e-02 -3.827918e-01 -1.815992e+00 89 2 4
-2.461023e-01 -3.694316e-01 -1.868828e+00 111 40 6
-2.461023e-01 -3.694316e-01 -1.868828e+00 111 40 6
-2.301171e-01 -3.547196e-01 -1.856339e+00 119 58 25
7.230884e-03 -3.235920e-01 -1.806442e+00 86 1 3
7.230884e-03 -3.235920e-01 -1.806442e+00 86 1 3
4.305610e-02 -3.023118e-01 -1.806035e+00 86 0 2
-2.277572e-01 -1.643523e-01 -1.786796e+00 93 32 3
2.029400e-01 -5.545443e-01 -1.548853e+00 76 75 58
4.869054e-01 -4.765109e-01 -1.474463e+00 68 65 50
5.564666e-02 -5.069025e-01 -1.709729e+00 142 160 97
1.508966e-01 -4.996184e-01 -1.688799e+00 31 84 18
1.170215e-01 -4.809257e-01 -1.678297e+00 44 95 4
-4.953582e-02 -4.888785e-01 -1.863252e+00 87 3 1
2.264984e-01 -4.428511e-01 -1.618242e+00 94 69 38
3.443112e-01 -4.408565e-01 -1.591610e+00 75 73 60
2.100234e-01 -4.332380e-01 -1.646731e+00 31 88 10
3.870743e-01 -4.169444e-01 -1.580864e+00 66 64 51
-3.154975e-01 -4.627628e-01 -1.929756e+00 116 59 3
-3.154975e-01 -4.627628e-01 -1.929756e+00 116 59 3
4.268388e-01 -3.998772e-01 -1.580132e+00 67 64 53
4.268388e-01 -3.998772e-01 -1.580132e+00 67 64 53
4.311639e-01 -3.882186e-01 -1.570588e+00 68 66 52
-1.779067e-01 -3.978426e-01 -1.847929e+00 114 41 0
3.544511e-01 -3.736683e-01 -1.620010e+00 55 53 40
-2.426511e-01 -3.677456e-01 -1.854135e+00 164 102 39
-1.246998e-01 -3.506839e-01 -1.824184e+00 134 35 4
-7.289455e-03 -3.303194e-01 -1.807192e+00 91 3 2
-4.175484e-01 -1.609679e-01 -1.895472e+00 129 64 19
2.679711e-01 -5.026001e-01 -1.620216e+00 73 72 54
2.703381e-01 -4.990551e-01 -1.615850e+00 74 72 57
2.765761e-01 -4.795356e-01 -1.602664e+00 54 52 40
1.695159e-01 -4.589805e-01 -1.668768e+00 41 93 15
2.288765e-01 -4.388331e-01 -1.644392e+00 79 95 31
4.273524e-03 -4.676332e-01 -1.842472e+00 135 38 25
1.044961e-02 -4.531832e-01 -1.840746e+00 94 1 1
1.766978e-01 -4.269493e-01 -1.703409e+00 44 40 29
-1.159066e-02 -4.386877e-01 -1.842818e+00 145 44 29
-3.357527e-01 -4.440551e-01 -1.953823e+00 110 51 0
-2.970473e-01 -4.316401e-01 -1.959927e+00 175 114 53
-2.993428e-01 -4.254032e-01 -1.926094e+00 175 114 53
-2.324516e-01 -4.164378e-01 -1.878227e+00 165 103 47
-2.322980e-01 -3.877226e-01 -1.869755e+00 94 29 5
4.416782e-01 -3.506356e-01 -1.618669e+00 35 33 20
5.025233e-01 -1.941216e-01 -1.888127e+00 41 40 22
1.707928e-01 -5.537372e-01 -1.567523e+00 76 77 59
-4.206895e-02 -2.494851e-01 -1.809658e+00 158 64 31
-3.305072e-01 -2.499804e-02 -1.755079e+00 154 48 17
7.257492e-01 -4.125032e-01 -1.663456e+00 86 77 38
7.775069e-01 -4.494918e-01 -1.648014e+00 204 188 152
-2.003791e-01 -2.477453e-01 -1.818638e+00 111 56 16
7.268336e-01 -5.603769e-01 -1.492725e+00 101 93 46
-9.539310e-02 -3.042177e-01 -1.824507e+00 89 11 4
-2.112934e-01 -1.831651e-01 -1.797859e+00 136 81 14
-1.971302e-01 -1.835682e-01 -1.796889e+00 183 128 73
-1.723458e-01 -2.810482e-01 -1.809730e+00 189 93 55
-1.030840e-01 -3.567120e-01 -1.861037e+00 158 81 42
-3.902176e-01 -2.214193e-01 -1.926372e+00 172 119 60
-2.185271e-01 -3.298922e-01 -1.864603e+00 88 26 2
-3.613069e-01 -3.529770e-01 -1.987211e+00 122 63 1
-1.930041e-01 -2.660876e-01 -1.837187e+00 97 34 1
-2.086193e-01 -2.621340e-01 -1.826948e+00 95 34 2
-2.005818e-01 -2.482749e-01 -1.818684e+00 98 44 1
-2.005818e-01 -2.482749e-01 -1.818684e+00 98 44 1
-3.061829e-01 -2.100024e-01 -1.830093e+00 104 57 3
-3.792112e-01 -1.909428e-01 -1.895458e+00 109 70 4
-3.312847e-01 -1.469189e-01 -1.817753e+00 113 64 6
-2.045068e-01 -2.773901e-01 -1.835866e+00 105 50 4
-3.565893e-01 -2.228568e-01 -1.886528e+00 156 108 40
-3.218500e-01 -2.156278e-01 -1.853565e+00 153 107 31
-2.490893e-01 -1.513578e-01 -1.776043e+00 161 113 42
-2.196397e-01 -2.134343e-01 -1.802939e+00 95 43 7
-3.402216e-01 -1.991831e-01 -1.851948e+00 158 112 44
-3.148625e-01 -1.453579e-01 -1.797104e+00 122 64 5
-3.687614e-01 -1.439075e-01 -1.842735e+00 155 107 35
5.237615e-01 -2.689362e-01 -1.737586e+00 30 27 18
1.551187e-01 -1.905828e-01 -1.783061e+00 191 173 133
-3.737730e-01 -9.363873e-02 -1.833082e+00 154 80 47
-2.952828e-01 -4.655654e-01 -1.905839e+00 90 29 0
-3.441172e-01 -2.031693e-01 -1.855586e+00 98 56 1
-3.435006e-01 -2.031756e-01 -1.859538e+00 95 52 0
3.992655e-01 -2.163592e-01 -1.693772e+00 212 198 152
-3.590677e-01 -4.122678e-01 -1.968740e+00 173 112 52
-3.698136e-01 -1.950514e-01 -1.866102e+00 96 57 3
-2.836628e-01 3.164592e-01 -1.845911e+00 120 106 105
-1.962782e-01 -2.180192e-01 -1.795465e+00 193 142 89
-5.342675e-02 -5.975792e-01 -1.730999e+00 28 109 24
-2.669080e-01 -3.055819e-01 -1.849671e+00 126 72 30
-2.669080e-01 -3.055819e-01 -1.849671e+00 126 72 30
2.110977e-01 -6.795559e-01 -1.659209e+00 114 104 72
-2.780105e-01 -6.848873e-01 -1.776991e+00 30 109 38
-2.231570e-01 -6.602073e-01 -1.762394e+00 99 122 68
-1.879907e-01 -6.383398e-01 -1.747233e+00 177 207 151
-1.985552e-01 1.111533e-01 -1.688637e+00 20 17 34
-3.972543e-01 -1.852856e-01 -1.892524e+00 187 130 75
-3.972543e-01 -1.852856e-01 -1.892524e+00 187 130 75
-3.302265e-01 -3.014890e-02 -1.761984e+00 176 69 26
-7.982299e-02 -5.810297e-01 -1.720002e+00 19 119 21
-1.534303e-01 -6.264645e-01 -1.736732e+00 18 102 17
-1.626114e-02 -5.654306e-01 -1.701664e+00 22 103 19
-1.858160e-01 -6.571988e-01 -1.740919e+00 182 165 119
1.629721e-01 -4.537281e-01 -1.646321e+00 162 183 116
-6.777340e-02 -5.538173e-01 -1.715858e+00 37 111 27
-2.195493e-01 -6.601456e-01 -1.746934e+00 62 98 33
-1.641676e-01 -6.013839e-01 -1.732002e+00 191 212 148
2.242866e-01 -4.274374e-01 -1.643662e+00 21 95 3
-1.534688e-01 -7.873814e-02 -1.752124e+00 162 108 26
2.190795e-01 -6.101134e-01 -1.529502e+00 27 24 5
1.954902e-01 -4.246190e-01 -1.655807e+00 31 26 6
-2.059804e-01 -2.699644e-01 -1.815563e+00 159 102 24
-8.662240e-02 2.089949e-01 -1.725722e+00 61 48 57
2.319426e-01 -6.191685e-01 -1.538088e+00 34 30 4
1.826345e-01 -6.387615e-01 -1.658540e+00 43 37 15
-2.021551e-01 -4.641027e-01 -1.870629e+00 94 30 3
-2.328302e-01 -4.424688e-01 -1.867024e+00 108 44 1
-2.714065e-01 -4.245660e-01 -1.873514e+00 108 38 0
-2.093468e-01 -4.194608e-01 -1.863429e+00 89 24 1
-2.416793e-01 -4.114711e-01 -1.859615e+00 109 44 0
-2.350033e-01 -3.366654e-01 -1.837646e+00 100 44 0
-1.966943e-01 1.961746e-02 -1.745485e+00 73 70 77
-3.335088e-01 1.564964e-02 -1.778479e+00 65 61 71
-5.040288e-02 -5.404700e-01 -1.694420e+00 78 161 64
1.143343e-01 -4.767460e-01 -1.696827e+00 46 42 8
2.357160e-01 -4.177991e-01 -1.642140e+00 196 182 119
-2.280895e-01 -2.135536e-01 -1.811626e+00 101 54 11
-1.558016e-01 -1.065615e-01 -1.752272e+00 55 4 0
-2.239830e-01 2.091226e-01 -1.769957e+00 55 42 58
-3.395182e-01 -6.779618e-01 -1.779036e+00 56 106 28
-2.759016e-01 -6.650968e-01 -1.749432e+00 112 157 103
-2.759016e-01 -6.650968e-01 -1.749432e+00 112 157 103
6.407479e-01 -5.216058e-01 -1.469939e+00 43 39 15
1.540081e-01 -5.615060e-01 -1.694712e+00 28 22 8
1.795330e-03 -5.414050e-01 -1.703466e+00 52 153 49
5.571827e-01 -2.387980e-01 -1.761689e+00 53 40 23
-2.173670e-01 -2.288093e-01 -1.806716e+00 113 51 4
6.465246e-01 -5.741098e-01 -1.509172e+00 54 48 38
-5.400645e-02 -5.365723e-01 -1.672192e+00 12 110 17
-4.532299e-02 -5.746652e-01 -1.670388e+00 182 160 123
-3.494194e-01 2.994515e-01 -1.839305e+00 206 190 137
-2.094514e-01 -5.789936e-01 -1.653185e+00 76 91 28
-3.829521e-01 -2.598226e-01 -1.992931e+00 183 127 63
8.336210e-01 -5.810400e-01 -1.532828e+00 199 189 142
-1.472774e-01 -3.210824e-01 -1.843739e+00 184 97 62
5.774607e-01 -4.393619e-01 -1.533410e+00 43 44 30
9.608249e-03 -1.029201e-01 -1.789445e+00 128 67 27
3.816154e-02 7.724696e-02 -1.762595e+00 153 32 5
-8.678219e-02 -2.077202e-01 -1.807147e+00 150 98 46
2.332947e-03 -1.683241e-01 -1.802191e+00 146 84 31
-2.056778e-01 -1.817491e-01 -1.826244e+00 154 98 23
-3.550534e-01 -1.594747e-01 -1.926790e+00 103 53 0
-3.550534e-01 -1.594747e-01 -1.926790e+00 103 53 0
4.726078e-02 -1.424206e-01 -1.824234e+00 87 27 0
-2.517464e-02 -6.821552e-02 -1.759114e+00 88 29 2
-1.765513e-02 -1.547677e-01 -1.795279e+00 139 81 21
-3.177306e-02 -1.528645e-01 -1.786297e+00 94 35 1
-3.730134e-01 -1.593709e-01 -1.924784e+00 153 105 35
-1.044955e-01 -1.457739e-01 -1.781634e+00 134 79 12
1.451455e-02 -1.018040e-01 -1.786350e+00 91 32 0
-3.980980e-01 -1.031495e-01 -1.924636e+00 110 61 3
-3.318923e-02 -7.384378e-02 -1.764243e+00 69 13 1
-1.057332e-01 -1.728290e-01 -1.776409e+00 110 43 2
-4.075268e-02 -1.742586e-01 -1.795974e+00 87 28 1
-6.910533e-02 -1.713441e-01 -1.793080e+00 85 25 0
-4.249023e-02 -1.585124e-01 -1.789939e+00 87 33 0
-3.884572e-01 -1.353661e-01 -1.941573e+00 152 110 38
-4.069930e-01 -5.937454e-02 -1.921961e+00 179 100 61
-1.032809e-01 -3.232662e-01 -1.861411e+00 167 78 44
-1.032809e-01 -3.232662e-01 -1.861411e+00 167 78 44
-4.923510e-02 -2.847379e-01 -1.856451e+00 151 56 28
-9.898032e-02 -1.793200e-01 -1.803621e+00 101 36 2
-1.360314e-01 -1.422288e-01 -1.765338e+00 71 19 0
-2.720566e-01 -1.796788e-01 -1.811571e+00 149 94 30
-1.605656e-01 -1.568857e-01 -1.773743e+00 72 16 2
-1.677688e-01 -1.419776e-01 -1.768107e+00 144 90 17
2.195291e-01 -4.278475e-01 -1.638887e+00 35 91 2
-2.071451e-01 -5.063294e-01 -1.937596e+00 111 48 12
-2.212632e-01 -1.669065e-01 -1.791085e+00 177 120 49
-1.473157e-01 -1.414706e-01 -1.766696e+00 110 55 9
-2.777919e-01 -1.227488e-01 -1.788604e+00 169 110 35
-2.322436e-01 -2.276462e-01 -1.823042e+00 118 62 2
-2.898838e-01 -1.533630e-01 -1.801383e+00 98 42 7
-2.873396e-01 -1.504482e-01 -1.806065e+00 175 125 61
-2.523529e-01 -2.433822e-01 -1.830035e+00 99 50 3
-3.007763e-01 -2.114922e-01 -1.848318e+00 103 56 4
-2.367936e-01 -1.694722e-01 -1.795987e+00 98 36 3
-2.627679e-01 -1.530947e-01 -1.796011e+00 95 44 7
-3.101389e-01 -1.505369e-01 -1.820110e+00 107 51 2
-2.638950e-01 -1.497024e-01 -1.796701e+00 99 43 10
-2.638950e-01 -1.497024e-01 -1.796701e+00 99 43 10
-3.011032e-01 -1.488414e-01 -1.811936e+00 161 112 49
-3.011032e-01 -1.488414e-01 -1.811936e+00 161 112 49
7.096274e-01 -4.856937e-01 -1.553064e+00 198 183 142
2.090557e-01 -4.343176e-01 -1.638399e+00 212 227 158
-7.958074e-02 -1.417776e-01 -1.771955e+00 94 33 1
-2.167169e-01 -3.302205e-01 -1.874367e+00 104 47 11
-1.027685e-01 -1.913157e-01 -1.790521e+00 155 92 15
-1.213659e-01 -1.923477e-01 -1.790565e+00 74 17 0
-3.400509e-01 -1.759824e-01 -1.858999e+00 164 113 34
-3.613868e-01 -2.459495e-01 -1.936379e+00 109 60 0
-1.281639e-01 -1.210170e-01 -1.757255e+00 85 25 0
-3.869631e-01 -9.570190e-02 -1.856396e+00 143 50 13
-3.669836e-01 -8.090351e-02 -1.832454e+00 172 87 48
-1.559554e-01 -1.120583e-01 -1.774274e+00 83 26 0
-1.824427e-01 -6.055982e-01 -1.718305e+00 21 119 23
1.774728e-01 -4.424193e-01 -1.639930e+00 22 122 24
4.867471e-02 -4.872978e-01 -1.670269e+00 34 108 19
9.478112e-02 -4.705820e-01 -1.658385e+00 17 94 9
1.429403e-01 -4.513519e-01 -1.660253e+00 164 174 117
2.008694e-01 -4.324389e-01 -1.643365e+00 12 96 13
1.958913e-01 -4.315593e-01 -1.651946e+00 167 179 124
1.491497e-01 -4.685322e-01 -1.655160e+00 184 192 135
1.920898e-01 -4.225832e-01 -1.650853e+00 29 36 4
6.588533e-01 -5.248033e-01 -1.480518e+00 35 27 14
2.885348e-02 -5.838189e-01 -1.697006e+00 171 153 117
1.862224e-01 -4.647375e-01 -1.655577e+00 92 107 50
-3.133206e-01 -6.114962e-01 -1.672718e+00 15 92 17
-3.877717e-01 -6.163981e-01 -1.687977e+00 24 95 19
-1.204815e-01 -1.435458e-01 -1.755403e+00 134 79 12
6.786010e-01 -4.904757e-01 -1.512032e+00 181 165 129
-2.831851e-01 -2.394955e-01 -1.843540e+00 97 49 8
3.483126e-01 -5.323339e-01 -1.493290e+00 74 72 51
4.852940e-01 -4.822540e-01 -1.482562e+00 66 63 46
