ply
format ascii 1.0
element face 0
property list uchar int vertex_indices
element vertex 932
property float x
property float y
property float z
property uchar diffuse_red
property uchar diffuse_green
property uchar diffuse_blue
end_header
3.837131e-01 -5.213770e-01 -1.608296e+00 72 71 49
3.523826e-01 -5.374323e-01 -1.608845e+00 66 65 46
3.523826e-01 -5.374323e-01 -1.608845e+00 66 65 46
-1.394764e-02 -5.474860e-01 -1.744359e+00 19 109 13
5.262392e-02 -4.840387e-01 -1.711924e+00 45 137 33
-3.548033e-01 -6.834443e-01 -1.771971e+00 29 117 4
-2.712368e-01 -6.854226e-01 -1.774429e+00 148 143 90
6.517103e-01 -6.209403e-01 -1.623899e+00 67 62 20
8.607981e-02 -5.043419e-01 -1.721010e+00 33 59 6
2.772063e-01 -2.415396e-01 -1.878351e+00 42 35 20
4.332729e-02 -1.642633e-02 -1.846587e+00 116 67 12
-3.942287e-01 -7.005697e-01 -1.773387e+00 28 105 18
-3.173788e-01 -6.999931e-01 -1.773233e+00 128 145 79
-3.333322e-01 -6.893327e-01 -1.767464e+00 25 101 12
2.240730e-01 -5.476202e-01 -1.669054e+00 69 67 52
2.240730e-01 -5.476202e-01 -1.669054e+00 69 67 52
-2.029711e-01 -4.965422e-01 -1.887792e+00 173 107 61
-8.410219e-02 -1.901825e-01 -1.821431e+00 173 121 72
-1.978159e-01 -1.391919e-01 -1.815412e+00 166 110 28
2.466835e-02 -9.853121e-02 -1.824825e+00 120 65 7
-1.357901e-01 1.997644e-01 -1.826609e+00 57 45 69
-3.632423e-01 -7.203453e-01 -1.778550e+00 114 141 79
-3.951248e-01 -6.943356e-01 -1.772781e+00 62 114 23
2.727344e-01 -5.927108e-01 -1.605752e+00 67 67 55
-1.263238e-01 -5.750948e-01 -1.751586e+00 114 201 103
-1.263238e-01 -5.750948e-01 -1.751586e+00 114 201 103
-1.781706e-02 -5.357310e-01 -1.741331e+00 94 185 86
1.994407e-02 -4.986441e-01 -1.746483e+00 200 211 168
6.785805e-02 -4.784153e-01 -1.743920e+00 203 223 162
1.126624e-01 -4.585860e-01 -1.753323e+00 23 19 0
1.670848e-01 -4.369992e-01 -1.751814e+00 19 12 0
2.135894e-01 -4.153737e-01 -1.726695e+00 17 82 19
-2.160852e-01 -4.018576e-01 -1.863888e+00 150 78 18
-2.441223e-01 -3.646417e-01 -1.876717e+00 105 34 3
-1.133620e-01 -1.956130e-01 -1.830608e+00 177 116 66
-3.996364e-01 -6.949773e-01 -1.773438e+00 206 220 155
-3.076434e-02 -5.174868e-01 -1.731216e+00 88 169 76
1.376364e-02 -5.007782e-01 -1.751988e+00 180 172 132
7.653567e-02 -4.796137e-01 -1.718274e+00 92 173 84
-2.373536e-01 -3.785453e-01 -1.872392e+00 166 104 41
-2.373536e-01 -3.785453e-01 -1.872392e+00 166 104 41
-2.427986e-01 -3.793595e-01 -1.875967e+00 99 30 3
-2.429796e-01 -3.790656e-01 -1.876181e+00 99 30 3
-2.566888e-01 -3.321634e-01 -1.872754e+00 165 98 26
-2.173972e-01 -3.046698e-01 -1.845950e+00 83 20 3
-2.035533e-01 -2.996997e-01 -1.847611e+00 164 107 35
-7.632786e-02 -3.002518e-01 -1.833813e+00 72 0 1
-8.040629e-02 -2.854936e-01 -1.848499e+00 74 0 0
-2.676180e-01 -2.771864e-01 -1.843795e+00 107 53 5
-1.925067e-01 -2.564230e-01 -1.834670e+00 174 128 54
-2.035098e-01 -2.391053e-01 -1.837173e+00 174 123 45
-4.559873e-03 -2.378860e-01 -1.836111e+00 158 58 32
-3.548748e-01 -2.281387e-01 -1.884167e+00 168 112 37
-2.505873e-01 -2.248073e-01 -1.843858e+00 95 50 1
-2.689764e-01 -2.211403e-01 -1.837005e+00 91 45 0
-1.222655e-01 -1.764725e-01 -1.826463e+00 100 43 3
-2.619137e-01 -1.282796e-01 -1.823096e+00 181 131 55
-3.958706e-01 -7.020311e-01 -1.769096e+00 135 152 78
-3.551602e-01 -6.855475e-01 -1.772413e+00 44 113 5
-2.949970e-01 -6.477792e-01 -1.768936e+00 44 123 40
-7.676228e-02 -5.451016e-01 -1.758545e+00 81 113 66
2.769585e-01 -4.746679e-01 -1.691974e+00 74 72 57
1.264969e-01 -5.121278e-01 -1.879913e+00 32 20 6
-3.575712e-01 -4.187692e-01 -1.914163e+00 160 106 36
-3.581219e-01 -4.207808e-01 -1.920107e+00 160 106 36
-3.571889e-01 -4.041042e-01 -1.910925e+00 167 107 38
-2.469473e-01 -3.808592e-01 -1.875764e+00 163 85 29
-1.083426e-01 -3.397540e-01 -1.830841e+00 140 49 33
-1.350611e-01 -3.346275e-01 -1.838939e+00 169 75 41
-2.523701e-01 -3.307609e-01 -1.850336e+00 106 37 0
-1.998320e-01 -3.034152e-01 -1.844421e+00 89 27 0
-2.405617e-01 -3.005136e-01 -1.837161e+00 111 56 2
-1.925380e-01 -3.010899e-01 -1.836632e+00 91 31 5
-2.481651e-01 -3.024893e-01 -1.855557e+00 100 38 1
-7.079682e-02 -2.957853e-01 -1.828762e+00 76 3 0
-6.529721e-02 -2.890957e-01 -1.825469e+00 102 7 1
-6.907080e-02 -2.767819e-01 -1.841359e+00 86 3 3
-3.516603e-01 -2.561792e-01 -1.866788e+00 110 63 5
-4.071957e-01 -2.221433e-01 -1.918399e+00 141 81 36
-2.191134e-01 -1.904778e-01 -1.831845e+00 96 44 13
-6.733880e-02 -1.755664e-01 -1.809106e+00 138 79 25
-1.101341e-01 -1.734722e-01 -1.821875e+00 153 94 28
-3.033626e-01 -1.694785e-01 -1.834868e+00 164 107 32
-3.033626e-01 -1.694785e-01 -1.834868e+00 164 107 32
-1.078890e-01 -1.637282e-01 -1.826183e+00 87 29 2
-1.078890e-01 -1.637282e-01 -1.826183e+00 87 29 2
-3.750947e-01 -1.598342e-01 -1.862012e+00 119 75 6
-2.247176e-01 -1.272152e-01 -1.810409e+00 98 41 5
-7.048993e-02 -1.095006e-01 -1.810450e+00 86 22 10
-2.004218e-01 -1.095190e-01 -1.803137e+00 174 120 49
-1.394168e-01 -8.931364e-02 -1.809600e+00 143 87 25
-7.411281e-02 -7.767821e-02 -1.796556e+00 64 15 2
-2.974555e-01 1.395615e-03 -1.807838e+00 174 73 32
-1.504424e-01 2.332401e-01 -1.853947e+00 61 48 58
-1.504424e-01 2.332401e-01 -1.853947e+00 61 48 58
1.455969e-01 -2.973704e-01 -1.959145e+00 207 189 151
-3.292879e-01 -6.445610e-01 -1.747335e+00 164 178 113
-2.120633e-01 -6.120810e-01 -1.731320e+00 185 203 149
-1.132864e-01 -5.513162e-01 -1.744537e+00 30 101 24
3.350030e-01 -3.950291e-01 -1.763268e+00 20 16 1
-9.595859e-02 -1.945244e-01 -1.847362e+00 168 116 66
-4.780971e-02 -4.572140e-02 -1.787426e+00 165 112 42
-2.257768e-01 -3.330753e-01 -1.862012e+00 101 44 1
-2.034004e-01 -1.438477e-01 -1.815226e+00 114 52 16
-9.162751e-02 -1.183194e-01 -1.809386e+00 99 39 6
-3.727406e-01 -1.113461e-01 -1.877614e+00 157 114 36
1.027258e-02 -8.872632e-02 -1.829759e+00 109 51 1
-6.702199e-02 -4.910641e-02 -1.806109e+00 164 110 41
2.373585e-01 -4.140148e-01 -1.737423e+00 18 95 4
-2.216508e-01 -3.953026e-01 -1.869947e+00 93 27 1
-2.437071e-01 -3.596302e-01 -1.860590e+00 109 38 3
-2.209173e-01 -3.270809e-01 -1.859293e+00 157 94 26
-5.827321e-02 -2.883377e-01 -1.844490e+00 143 40 19
1.616089e-01 -2.985678e-01 -1.897329e+00 46 34 25
-1.860760e-01 -2.599295e-01 -1.846116e+00 86 29 10
-1.881324e-01 -2.262836e-01 -1.829914e+00 93 42 7
-1.881324e-01 -2.262836e-01 -1.829914e+00 93 42 7
-3.599678e-01 -1.534303e-01 -1.862560e+00 126 74 1
-2.446812e-01 -9.891678e-03 -1.787259e+00 193 83 34
-2.627258e-01 -5.378576e-03 -1.793474e+00 220 122 73
-2.627258e-01 -5.378576e-03 -1.793474e+00 220 122 73
-7.955765e-02 2.065437e-01 -1.807865e+00 112 97 98
-2.258375e-01 -4.704637e-01 -1.882894e+00 105 41 2
-3.407553e-01 -4.554940e-01 -1.941316e+00 157 99 26
-2.095375e-01 -4.158896e-01 -1.870595e+00 79 14 0
-2.414085e-01 -3.333467e-01 -1.873312e+00 163 103 36
-4.232386e-02 -3.570933e-01 -1.865522e+00 134 38 24
-1.060690e-01 -3.435087e-01 -1.845423e+00 149 59 36
-9.274141e-02 -3.013308e-01 -1.850649e+00 77 4 4
-2.891542e-01 -2.736042e-01 -1.846409e+00 102 49 6
-2.111609e-01 -2.427956e-01 -1.860228e+00 150 85 25
-3.468620e-01 -1.204123e-01 -1.856509e+00 163 112 32
-1.482160e-01 2.690212e-02 -1.770884e+00 42 28 35
7.422839e-01 -5.757177e-01 -1.653751e+00 192 177 138
-1.972137e+00 7.577167e-01 -2.817132e+00 73 93 112
6.506937e-01 -4.639785e-01 -1.688893e+00 40 34 20
-1.987383e+00 6.564979e-01 -2.765127e+00 67 85 99
-1.987383e+00 6.564979e-01 -2.765127e+00 67 85 99
-2.141157e+00 8.105725e-01 -2.783799e+00 147 132 106
-1.332476e-01 -8.161672e-02 -1.796273e+00 144 86 5
-2.034543e+00 7.978811e-01 -2.906318e+00 166 150 126
-2.106155e+00 7.539564e-01 -2.764498e+00 137 126 110
7.203315e-01 -6.398000e-01 -1.657165e+00 176 167 116
-2.349342e-01 2.224059e-01 -1.871246e+00 62 52 76
-1.904830e+00 7.021014e-01 -2.733066e+00 134 128 115
-2.275023e+00 7.912786e-01 -2.907113e+00 158 144 119
5.108801e-01 -5.077558e-01 -1.649228e+00 101 99 72
-3.550088e-01 -8.535979e-02 -1.851052e+00 98 43 3
-1.590965e-01 2.214915e-01 -1.854327e+00 61 48 66
-2.446092e-01 2.129737e-01 -1.851497e+00 61 49 72
-2.446092e-01 2.129737e-01 -1.851497e+00 61 49 72
-2.209009e+00 7.457990e-01 -2.856540e+00 90 79 48
7.099505e-01 -5.435472e-01 -1.644483e+00 29 26 8
1.050281e-01 -4.680202e-01 -1.749933e+00 35 118 35
5.621873e-01 -4.149408e-01 -1.657626e+00 55 42 14
-4.231469e-02 -4.512826e-01 -1.858095e+00 134 36 16
-3.885020e-01 -6.733678e-02 -1.871965e+00 176 109 47
-4.520711e-01 2.247553e-01 -1.920459e+00 34 17 5
1.311448e+00 5.756075e-01 -1.968062e+00 118 107 87
2.670025e-01 -5.657011e-01 -1.703428e+00 77 75 62
-7.224293e-02 -2.055984e-01 -1.834819e+00 179 78 46
6.999671e-01 -5.201193e-01 -1.643825e+00 117 105 66
1.055003e-01 -5.273001e-01 -1.770913e+00 22 68 7
1.514077e-01 -5.375134e-01 -1.794977e+00 19 22 3
1.884295e-01 -4.864743e-01 -1.748180e+00 34 53 30
5.715446e-01 -4.355312e-01 -1.639998e+00 72 67 49
3.931861e-01 -4.255167e-01 -1.713805e+00 61 59 46
2.312267e-01 -4.167516e-01 -1.729869e+00 190 217 143
2.065078e-01 -4.171780e-01 -1.736080e+00 190 211 141
5.870285e-01 -3.976123e-01 -1.724601e+00 90 77 45
-3.614306e-01 -4.165682e-01 -1.896965e+00 178 111 57
1.143696e-01 -3.216978e-01 -1.821676e+00 51 44 36
-1.418342e-01 -2.839259e-01 -1.845779e+00 179 82 46
-3.772624e-01 -2.465638e-01 -1.887383e+00 192 127 73
-3.468100e-01 -1.807185e-01 -1.877867e+00 158 110 34
-2.122848e-01 -1.631493e-01 -1.823388e+00 123 68 0
-1.314935e-01 2.074773e-01 -1.843562e+00 50 37 53
-4.374023e-01 2.576805e-01 -1.906138e+00 65 48 27
1.896427e-01 -5.336609e-01 -1.698094e+00 27 25 13
2.566938e-01 -4.631176e-01 -1.730794e+00 5 7 2
-5.514988e-02 -5.865167e-01 -1.723701e+00 173 156 113
8.730629e-02 -4.535754e-01 -1.737372e+00 40 39 19
7.025365e-01 -6.495502e-01 -1.642922e+00 178 162 126
-7.276180e-02 -5.128695e-01 -1.678585e+00 18 90 15
-2.527291e-02 -5.006847e-01 -1.683983e+00 20 93 17
3.292352e-03 -5.043660e-01 -1.730352e+00 16 91 12
4.653158e-02 -4.821099e-01 -1.726265e+00 13 87 11
5.700077e-01 -3.929098e-01 -1.726792e+00 17 18 9
-7.157826e-02 -6.521713e-02 -1.826007e+00 145 81 11
2.184123e-01 -4.712026e-01 -1.729727e+00 0 5 0
5.301954e-02 -1.382487e-01 -1.911239e+00 112 58 12
1.257223e-01 -1.331868e-01 -1.985215e+00 157 103 56
-4.805267e-02 -5.540894e-01 -1.705042e+00 173 157 113
-8.340132e-02 -4.925108e-01 -1.688461e+00 37 109 25
1.314662e-01 -5.176851e-01 -1.738419e+00 36 38 20
-4.518921e-01 1.135721e-01 -1.947749e+00 211 197 157
-2.280089e-01 -5.856099e-01 -1.680957e+00 24 91 19
3.186608e-01 -4.638928e-01 -1.558824e+00 73 72 54
3.186608e-01 -4.638928e-01 -1.558824e+00 73 72 54
1.026294e-01 -4.830399e-01 -1.719245e+00 201 218 162
2.090286e-01 -4.448603e-01 -1.716829e+00 123 142 91
1.994296e-01 -4.323357e-01 -1.716474e+00 20 93 16
2.199042e-01 -4.196150e-01 -1.739693e+00 197 207 159
2.376171e-01 -4.157042e-01 -1.743054e+00 32 114 29
3.467162e-01 -3.964027e-01 -1.757200e+00 20 9 2
1.710859e-01 -4.150237e-01 -2.101048e+00 101 8 0
2.145766e-01 -4.147484e-01 -2.119584e+00 17 7 1
-1.038008e-01 -8.905860e-02 -1.805095e+00 78 27 1
-1.038008e-01 -8.905860e-02 -1.805095e+00 78 27 1
-9.539037e-02 -1.607601e-01 -1.828296e+00 103 40 11
2.282106e-01 -4.035571e-01 -2.200212e+00 114 29 2
4.988057e-01 -3.946609e-01 -1.802505e+00 71 68 59
4.988057e-01 -3.946609e-01 -1.802505e+00 71 68 59
7.572927e-02 -1.354720e-01 -1.939007e+00 163 112 57
6.322141e-02 -1.309951e-01 -1.925053e+00 87 28 0
9.877411e-02 -1.269758e-01 -1.950974e+00 129 78 21
2.086863e-01 -4.259529e-01 -1.748165e+00 13 29 2
4.989982e-01 -3.744272e-01 -1.798378e+00 101 99 86
-1.655591e-01 -1.801806e-01 -1.842126e+00 168 82 47
8.193800e-02 3.547896e-02 -1.890352e+00 189 140 95
-1.403714e-01 -5.893937e-01 -1.785540e+00 20 84 22
-2.043216e+00 5.180608e-01 -2.588494e+00 49 58 58
-2.892052e-01 -6.635127e-01 -1.813428e+00 20 78 25
6.994286e-01 -5.111353e-01 -1.655086e+00 178 164 126
-4.647279e-02 -1.067550e-01 -1.816706e+00 70 26 1
-2.236120e+00 7.290130e-01 -2.849621e+00 117 106 81
1.209293e-01 -5.278564e-01 -1.760655e+00 101 97 57
-2.373644e-01 -4.197092e-01 -1.869833e+00 89 24 0
-3.334545e-01 -1.765162e-01 -1.861805e+00 95 52 18
7.047648e-01 -5.275203e-01 -1.645591e+00 58 53 22
-1.410202e-01 -9.230965e-02 -1.803019e+00 122 68 19
-1.614018e-01 -5.641153e-01 -1.732750e+00 181 175 138
2.747491e-01 -4.795059e-01 -1.693080e+00 78 76 63
1.794728e-01 -4.413212e-01 -1.717284e+00 46 82 25
1.937375e-01 -4.376405e-01 -1.744668e+00 18 52 1
2.358408e-01 -4.222293e-01 -1.722479e+00 170 192 138
-6.214919e-02 -2.900583e-01 -1.848129e+00 87 3 5
-2.556160e-01 -2.792657e-01 -1.856136e+00 77 19 4
3.933743e-01 -1.995162e-01 -1.925957e+00 81 75 58
-2.610240e-01 -9.241273e-03 -1.791200e+00 227 144 102
6.281158e-02 2.355698e-01 -1.839753e+00 126 115 96
-2.306031e+00 7.423153e-01 -2.919656e+00 52 46 36
-3.101623e-01 -7.167377e-01 -1.810573e+00 46 83 33
7.283170e-01 -6.237093e-01 -1.658206e+00 160 147 105
-2.194570e+00 7.035849e-01 -2.789802e+00 129 117 91
-2.094658e+00 7.666191e-01 -2.826944e+00 119 112 87
-2.118252e+00 6.989578e-01 -2.802987e+00 133 122 98
-2.242830e+00 7.584346e-01 -2.906997e+00 95 83 57
-2.140537e+00 7.167812e-01 -2.805384e+00 130 119 92
7.148325e-01 -7.283915e-01 -1.671777e+00 26 21 0
7.637942e-02 -4.659533e-01 -1.735665e+00 84 85 51
-2.779556e-01 -9.111929e-02 -1.855613e+00 151 100 38
-3.024998e-01 -1.516909e-01 -1.833314e+00 144 96 41
-1.851924e+00 6.972907e-01 -2.669073e+00 44 63 69
2.512299e-01 -5.703220e-01 -1.704579e+00 78 78 66
-1.463661e-01 4.311833e-02 -1.810445e+00 96 89 93
-3.003728e-01 -4.492805e-01 -1.882274e+00 141 80 33
-3.659968e-01 -4.210962e-01 -1.869599e+00 119 41 9
-3.663361e-01 -4.217206e-01 -1.871584e+00 119 41 9
3.777139e-01 -3.691137e-01 -1.743094e+00 53 50 41
-3.001893e-01 -1.496989e-01 -1.839756e+00 102 49 0
-1.449760e-01 -3.529674e-01 -1.856269e+00 164 74 47
-1.959120e-01 -1.908459e-01 -1.828866e+00 152 105 45
-3.100289e-01 -1.246436e-01 -1.838812e+00 136 85 29
4.987253e-01 -5.117743e-01 -1.655346e+00 65 58 49
-1.085533e-01 -3.517476e-01 -1.855197e+00 81 2 2
-1.168640e-01 -3.342101e-01 -1.853345e+00 169 83 56
-7.922222e-02 -1.258083e-01 -1.815334e+00 132 72 24
-3.229042e-01 -6.887543e-01 -1.835853e+00 30 94 34
5.055907e-01 -4.861466e-01 -1.628383e+00 78 76 55
-6.746392e-03 -3.441779e-01 -1.877547e+00 130 34 12
-1.415523e-01 2.219166e-01 -1.843647e+00 111 97 98
-1.415523e-01 2.219166e-01 -1.843647e+00 111 97 98
-4.277200e-01 -4.784364e-02 -1.900165e+00 148 115 64
-1.244981e-01 3.299133e-01 -1.920902e+00 26 22 39
5.525327e-01 -4.187081e-01 -1.640390e+00 48 42 27
-1.624666e-01 -2.458616e-01 -1.835187e+00 183 97 60
-2.152444e-01 2.781464e-01 -1.857552e+00 82 72 72
-6.044673e-02 -1.698068e-01 -1.831430e+00 85 38 10
-2.230005e-01 -3.096634e-01 -1.859142e+00 163 104 27
-3.141995e-01 -2.301066e-01 -1.868184e+00 90 37 0
-3.141995e-01 -2.301066e-01 -1.868184e+00 90 37 0
2.487045e-02 -3.204777e-01 -1.891791e+00 133 41 29
2.487045e-02 -3.204777e-01 -1.891791e+00 133 41 29
-3.557408e-02 -5.079151e-01 -1.712531e+00 116 189 100
-7.619312e-02 -1.088892e-01 -1.812249e+00 154 94 25
-4.105581e-02 -7.874977e-02 -1.814322e+00 102 36 0
-7.750420e-02 -6.192112e-01 -1.775806e+00 199 178 135
-3.321599e-01 -6.783507e-01 -1.805342e+00 32 110 28
-1.395367e-01 -5.892428e-01 -1.783461e+00 25 109 24
1.010196e-01 -5.098471e-01 -1.721113e+00 118 104 65
3.723054e-01 -5.644186e-01 -1.637343e+00 63 62 44
4.789837e-01 -4.942978e-01 -1.625363e+00 90 84 60
4.789837e-01 -4.942978e-01 -1.625363e+00 90 84 60
5.009554e-02 -5.404757e-01 -1.750228e+00 56 78 9
4.524837e-02 -4.936855e-01 -1.706629e+00 177 196 140
1.422821e-01 -4.492158e-01 -1.744277e+00 33 117 26
5.605701e-01 -4.183726e-01 -1.649141e+00 55 48 22
2.391884e-01 -4.035549e-01 -1.733556e+00 53 124 39
2.378861e-01 -5.216218e-01 -1.613685e+00 80 79 61
3.487098e-01 -4.391916e-01 -1.703862e+00 64 62 48
2.531594e-01 -4.112060e-01 -1.727731e+00 166 125 66
3.559462e-01 -3.884785e-01 -1.732984e+00 36 29 19
-7.708267e-02 -3.651454e-01 -1.843538e+00 89 2 4
-2.451607e-01 -3.463834e-01 -1.865603e+00 111 40 6
-2.451607e-01 -3.463834e-01 -1.865603e+00 111 40 6
-2.270472e-01 -3.320702e-01 -1.858288e+00 119 58 25
8.939522e-03 -3.131464e-01 -1.856354e+00 86 1 3
8.939522e-03 -3.131464e-01 -1.856354e+00 86 1 3
4.411294e-02 -2.950977e-01 -1.864724e+00 86 0 2
-2.033142e-01 -1.423716e-01 -1.815154e+00 93 32 3
2.298855e-01 -5.214185e-01 -1.619997e+00 76 75 58
5.177265e-01 -4.583928e-01 -1.608433e+00 68 65 50
6.360993e-02 -4.824908e-01 -1.752387e+00 142 160 97
1.583276e-01 -4.798409e-01 -1.750097e+00 31 84 18
1.288639e-01 -4.584943e-01 -1.736341e+00 44 95 4
-6.309933e-02 -4.737911e-01 -1.881204e+00 87 3 1
2.456241e-01 -4.231865e-01 -1.702970e+00 94 69 38
3.627100e-01 -4.265532e-01 -1.698623e+00 75 73 60
2.253141e-01 -4.157785e-01 -1.728185e+00 31 88 10
4.065317e-01 -4.053784e-01 -1.698660e+00 66 64 51
-3.263577e-01 -4.374422e-01 -1.900336e+00 116 59 3
-3.263577e-01 -4.374422e-01 -1.900336e+00 116 59 3
4.454070e-01 -3.916121e-01 -1.706899e+00 67 64 53
4.454070e-01 -3.916121e-01 -1.706899e+00 67 64 53
4.517876e-01 -3.797120e-01 -1.699932e+00 68 66 52
-1.779966e-01 -3.761200e-01 -1.854563e+00 114 41 0
3.705562e-01 -3.656208e-01 -1.735018e+00 55 53 40
-2.391674e-01 -3.434937e-01 -1.852522e+00 164 102 39
-1.209552e-01 -3.320355e-01 -1.846844e+00 134 35 4
-5.326618e-03 -3.186985e-01 -1.853736e+00 91 3 2
-4.028687e-01 -1.375517e-01 -1.884698e+00 129 64 19
2.819205e-01 -4.836204e-01 -1.705318e+00 73 72 54
2.851233e-01 -4.799246e-01 -1.701998e+00 74 72 57
2.937236e-01 -4.598900e-01 -1.692096e+00 54 52 40
1.815762e-01 -4.400174e-01 -1.739023e+00 41 93 15
2.434165e-01 -4.221958e-01 -1.728637e+00 79 95 31
-7.204078e-03 -4.549384e-01 -1.873440e+00 135 38 25
-3.343260e-04 -4.413105e-01 -1.874543e+00 94 1 1
1.837432e-01 -4.133172e-01 -1.776755e+00 44 40 29
-2.097436e-02 -4.261050e-01 -1.874280e+00 145 44 29
-3.490101e-01 -4.205913e-01 -1.921645e+00 110 51 0
-3.130630e-01 -4.125161e-01 -1.937475e+00 175 114 53
-3.086103e-01 -4.023327e-01 -1.903966e+00 175 114 53
-2.361081e-01 -3.933664e-01 -1.871504e+00 165 103 47
-2.330851e-01 -3.649609e-01 -1.866807e+00 94 29 5
4.551113e-01 -3.492807e-01 -1.751726e+00 35 33 20
4.708406e-01 -2.303908e-01 -2.033648e+00 41 40 22
1.960561e-01 -5.203994e-01 -1.632188e+00 76 77 59
-3.499733e-02 -2.389542e-01 -1.859120e+00 158 64 31
-2.887058e-01 1.738648e-03 -1.783510e+00 154 48 17
7.124187e-01 -4.318810e-01 -1.834768e+00 86 77 38
7.625431e-01 -4.692580e-01 -1.824929e+00 204 188 152
-1.869668e-01 -2.275892e-01 -1.840535e+00 111 56 16
7.368495e-01 -5.562835e-01 -1.656767e+00 101 93 46
-9.093016e-02 -2.894711e-01 -1.857774e+00 89 11 4
-1.905768e-01 -1.626669e-01 -1.826216e+00 136 81 14
-1.769259e-01 -1.639232e-01 -1.827794e+00 183 128 73
-1.603020e-01 -2.605394e-01 -1.833147e+00 189 93 55
-1.072661e-01 -3.431553e-01 -1.885164e+00 158 81 42
-3.856041e-01 -2.006730e-01 -1.913126e+00 172 119 60
-2.163618e-01 -3.100298e-01 -1.871688e+00 88 26 2
-3.752790e-01 -3.353286e-01 -1.960817e+00 122 63 1
-1.841373e-01 -2.476699e-01 -1.857510e+00 97 34 1
-1.969689e-01 -2.417106e-01 -1.845367e+00 95 34 2
-1.871876e-01 -2.280843e-01 -1.840491e+00 98 44 1
-1.871876e-01 -2.280843e-01 -1.840491e+00 98 44 1
-2.878099e-01 -1.854161e-01 -1.837503e+00 104 57 3
-3.681247e-01 -1.689349e-01 -1.889168e+00 109 70 4
-3.064697e-01 -1.218503e-01 -1.828724e+00 113 64 6
-1.953847e-01 -2.575613e-01 -1.852800e+00 105 50 4
-3.465071e-01 -2.002030e-01 -1.880921e+00 156 108 40
-3.071943e-01 -1.921910e-01 -1.856449e+00 153 107 31
-2.210329e-01 -1.273435e-01 -1.802765e+00 161 113 42
-2.008204e-01 -1.917181e-01 -1.826247e+00 95 43 7
-3.235965e-01 -1.749903e-01 -1.853632e+00 158 112 44
-2.870658e-01 -1.193309e-01 -1.812134e+00 122 64 5
-3.464693e-01 -1.190080e-01 -1.846338e+00 155 107 35
5.144839e-01 -2.882615e-01 -1.886495e+00 30 27 18
1.599185e-01 -1.929261e-01 -1.874757e+00 191 173 133
-3.470814e-01 -6.936229e-02 -1.841769e+00 154 80 47
-3.031349e-01 -4.393732e-01 -1.881912e+00 90 29 0
-3.281098e-01 -1.788958e-01 -1.855717e+00 98 56 1
-3.282345e-01 -1.793494e-01 -1.859565e+00 95 52 0
4.066034e-01 -2.249157e-01 -1.829516e+00 212 198 152
-3.725492e-01 -3.903886e-01 -1.936515e+00 173 112 52
-3.540442e-01 -1.704553e-01 -1.862188e+00 96 57 3
-2.443305e-01 3.175522e-01 -1.916493e+00 120 106 105
-1.774953e-01 -1.969298e-01 -1.822684e+00 193 142 89
-4.816793e-02 -5.644059e-01 -1.743307e+00 28 109 24
-2.585075e-01 -2.818538e-01 -1.851818e+00 126 72 30
-2.585075e-01 -2.818538e-01 -1.851818e+00 126 72 30
2.121260e-01 -6.534777e-01 -1.711846e+00 114 104 72
-2.739584e-01 -6.379384e-01 -1.738122e+00 30 109 38
-2.180416e-01 -6.164047e-01 -1.736581e+00 99 122 68
-1.808680e-01 -5.961956e-01 -1.730785e+00 177 207 151
-1.448442e-01 1.304769e-01 -1.758732e+00 20 17 34
-3.844204e-01 -1.619427e-01 -1.883551e+00 187 130 75
-3.844204e-01 -1.619427e-01 -1.883551e+00 187 130 75
-2.899058e-01 -3.988439e-03 -1.789280e+00 176 69 26
-7.050926e-02 -5.456202e-01 -1.730206e+00 19 119 21
-1.455825e-01 -5.860401e-01 -1.728181e+00 18 102 17
-6.079814e-03 -5.329950e-01 -1.725598e+00 22 103 19
-1.785615e-01 -6.138261e-01 -1.723073e+00 182 165 119
1.793643e-01 -4.320402e-01 -1.716825e+00 162 183 116
-5.701806e-02 -5.198445e-01 -1.731431e+00 37 111 27
-2.118364e-01 -6.150151e-01 -1.722599e+00 62 98 33
-1.537511e-01 -5.607302e-01 -1.724667e+00 191 212 148
2.382347e-01 -4.098842e-01 -1.726540e+00 21 95 3
-1.224107e-01 -6.156300e-02 -1.804938e+00 162 108 26
2.461402e-01 -5.738822e-01 -1.598287e+00 27 24 5
2.098460e-01 -4.072027e-01 -1.734610e+00 31 26 6
-1.927918e-01 -2.482232e-01 -1.834068e+00 159 102 24
-4.034372e-02 2.133059e-01 -1.824632e+00 61 48 57
2.563940e-01 -5.843268e-01 -1.607613e+00 34 30 4
1.871232e-01 -6.123108e-01 -1.710890e+00 43 37 15
-2.082428e-01 -4.405956e-01 -1.864826e+00 94 30 3
-2.357217e-01 -4.173817e-01 -1.858549e+00 108 44 1
-2.726991e-01 -3.982591e-01 -1.860038e+00 108 38 0
-2.116702e-01 -3.964928e-01 -1.861818e+00 89 24 1
-2.413324e-01 -3.862513e-01 -1.853512e+00 109 44 0
-2.274996e-01 -3.125966e-01 -1.842355e+00 100 44 0
-1.576241e-01 3.654940e-02 -1.802472e+00 73 70 77
-2.938226e-01 3.856250e-02 -1.809582e+00 65 61 71
-3.603961e-02 -5.059791e-01 -1.715651e+00 78 161 64
1.230434e-01 -4.560923e-01 -1.753629e+00 46 42 8
2.509073e-01 -4.019987e-01 -1.729516e+00 196 182 119
-2.104224e-01 -1.921538e-01 -1.832936e+00 101 54 11
-1.259810e-01 -8.815175e-02 -1.801478e+00 55 4 0
-1.789397e-01 2.181984e-01 -1.842874e+00 55 42 58
-3.324595e-01 -6.274031e-01 -1.730231e+00 56 106 28
-2.660710e-01 -6.162517e-01 -1.714661e+00 112 157 103
-2.660710e-01 -6.162517e-01 -1.714661e+00 112 157 103
6.610863e-01 -5.109622e-01 -1.624738e+00 43 39 15
1.571049e-01 -5.399341e-01 -1.748907e+00 28 22 8
1.188615e-02 -5.113168e-01 -1.733140e+00 52 153 49
5.435835e-01 -2.640813e-01 -1.918755e+00 53 40 23
-2.000735e-01 -2.070223e-01 -1.828404e+00 113 51 4
6.559818e-01 -5.652256e-01 -1.656335e+00 54 48 38
-3.540256e-02 -4.995914e-01 -1.694258e+00 12 110 17
-2.862283e-02 -5.365861e-01 -1.689779e+00 182 160 123
-3.065337e-01 3.077352e-01 -1.899546e+00 206 190 137
-1.816300e-01 -5.279972e-01 -1.644672e+00 76 91 28
-3.925262e-01 -2.449649e-01 -1.973309e+00 183 127 63
8.310481e-01 -5.878716e-01 -1.711293e+00 199 189 142
-1.444989e-01 -3.042078e-01 -1.865302e+00 184 97 62
5.887378e-01 -4.318048e-01 -1.680155e+00 43 44 30
2.518117e-02 -9.964460e-02 -1.866203e+00 128 67 27
6.561269e-02 7.454096e-02 -1.865514e+00 153 32 5
-7.486619e-02 -1.956772e-01 -1.854148e+00 150 98 46
1.270023e-02 -1.632947e-01 -1.869365e+00 146 84 31
-1.900960e-01 -1.647611e-01 -1.854949e+00 154 98 23
-3.493416e-01 -1.438910e-01 -1.928320e+00 103 53 0
-3.493416e-01 -1.438910e-01 -1.928320e+00 103 53 0
5.250785e-02 -1.435937e-01 -1.900659e+00 87 27 0
-8.430843e-04 -6.080541e-02 -1.835278e+00 88 29 2
-4.385535e-03 -1.482306e-01 -1.860966e+00 139 81 21
-1.614663e-02 -1.445126e-01 -1.850152e+00 94 35 1
-3.661061e-01 -1.423722e-01 -1.923304e+00 153 105 35
-8.418202e-02 -1.323039e-01 -1.833876e+00 134 79 12
3.044831e-02 -9.858059e-02 -1.864223e+00 91 32 0
-3.873347e-01 -8.650521e-02 -1.925419e+00 110 61 3
-9.656792e-03 -6.620485e-02 -1.838125e+00 69 13 1
-8.577118e-02 -1.576569e-01 -1.825505e+00 110 43 2
-2.746097e-02 -1.654637e-01 -1.855331e+00 87 28 1
-5.379350e-02 -1.604433e-01 -1.847964e+00 85 25 0
-2.727956e-02 -1.495864e-01 -1.851083e+00 87 33 0
-3.827309e-01 -1.199627e-01 -1.939552e+00 152 110 38
-3.932573e-01 -4.342932e-02 -1.926429e+00 179 100 61
-1.056733e-01 -3.114591e-01 -1.890154e+00 167 78 44
-1.056733e-01 -3.114591e-01 -1.890154e+00 167 78 44
-5.151683e-02 -2.774886e-01 -1.899103e+00 151 56 28
-8.445291e-02 -1.672091e-01 -1.851976e+00 101 36 2
-1.112058e-01 -1.250632e-01 -1.813119e+00 71 19 0
-2.506257e-01 -1.566475e-01 -1.829356e+00 149 94 30
-1.367337e-01 -1.383591e-01 -1.815212e+00 72 16 2
-1.418556e-01 -1.229738e-01 -1.810325e+00 144 90 17
2.353355e-01 -4.100901e-01 -1.722099e+00 35 91 2
-2.270867e-01 -4.880223e-01 -1.923289e+00 111 48 12
-1.980249e-01 -1.456951e-01 -1.820121e+00 177 120 49
-1.221328e-01 -1.237155e-01 -1.812568e+00 110 55 9
-2.492238e-01 -9.921291e-02 -1.813149e+00 169 110 35
-2.171013e-01 -2.066219e-01 -1.841680e+00 118 62 2
-2.644463e-01 -1.293108e-01 -1.820530e+00 98 42 7
-2.627683e-01 -1.269891e-01 -1.824920e+00 175 125 61
-2.383049e-01 -2.209893e-01 -1.842525e+00 99 50 3
-2.860625e-01 -1.891078e-01 -1.855778e+00 103 56 4
-2.137910e-01 -1.476295e-01 -1.821837e+00 98 36 3
-2.377148e-01 -1.301499e-01 -1.819278e+00 95 44 7
-2.869903e-01 -1.269852e-01 -1.834346e+00 107 51 2
-2.387489e-01 -1.268845e-01 -1.820129e+00 99 43 10
-2.387489e-01 -1.268845e-01 -1.820129e+00 99 43 10
-2.768415e-01 -1.251232e-01 -1.828323e+00 161 112 49
-2.768415e-01 -1.251232e-01 -1.828323e+00 161 112 49
7.125375e-01 -4.893914e-01 -1.718828e+00 198 183 142
2.249159e-01 -4.152663e-01 -1.718779e+00 212 227 158
-5.871981e-02 -1.290884e-01 -1.829156e+00 94 33 1
-2.164342e-01 -3.115648e-01 -1.881515e+00 104 47 11
-8.644904e-02 -1.770364e-01 -1.837168e+00 155 92 15
-1.041808e-01 -1.767868e-01 -1.833896e+00 74 17 0
-3.238201e-01 -1.535062e-01 -1.864140e+00 164 113 34
-3.612611e-01 -2.274555e-01 -1.925652e+00 109 60 0
-1.012300e-01 -1.043722e-01 -1.809263e+00 85 25 0
-3.640521e-01 -7.286694e-02 -1.862219e+00 143 50 13
-3.399996e-01 -5.750760e-02 -1.844539e+00 172 87 48
-1.303270e-01 -9.551309e-02 -1.821389e+00 83 26 0
-1.688777e-01 -5.625226e-01 -1.708420e+00 21 119 23
1.942453e-01 -4.210941e-01 -1.713881e+00 22 122 24
6.461840e-02 -4.588202e-01 -1.715510e+00 34 108 19
1.112442e-01 -4.445746e-01 -1.714022e+00 17 94 9
1.575185e-01 -4.295254e-01 -1.726254e+00 164 174 117
2.161217e-01 -4.132540e-01 -1.722052e+00 12 96 13
2.101331e-01 -4.131771e-01 -1.729698e+00 167 179 124
1.635778e-01 -4.459349e-01 -1.720662e+00 184 192 135
2.071318e-01 -4.041866e-01 -1.728999e+00 29 36 4
6.763931e-01 -5.164421e-01 -1.637572e+00 35 27 14
3.547042e-02 -5.516808e-01 -1.725387e+00 171 153 117
1.976842e-01 -4.438600e-01 -1.726662e+00 92 107 50
-2.854026e-01 -5.543428e-01 -1.641582e+00 15 92 17
-3.591345e-01 -5.556782e-01 -1.642638e+00 24 95 19
-9.503756e-02 -1.261175e-01 -1.805241e+00 134 79 12
6.912863e-01 -4.881280e-01 -1.674748e+00 181 165 129
-2.698763e-01 -2.166267e-01 -1.849916e+00 97 49 8
3.787106e-01 -5.039817e-01 -1.594957e+00 74 72 51
5.129033e-01 -4.639700e-01 -1.614092e+00 66 63 46
5.983031e-01 -4.304635e-01 -1.658078e+00 196 180 146
-2.095196e-01 -5.104300e-01 -1.626334e+00 13 93 15
-2.982483e-01 1.646983e-02 -1.777508e+00 104 7 0
-3.873717e-01 -6.846399e-01 -1.747481e+00 27 94 25
4.062509e-01 -5.068382e-01 -1.604906e+00 72 69 50
7.251909e-02 -4.459247e-01 -1.697376e+00 25 103 17
-2.412570e-01 -6.234757e-01 -1.735772e+00 174 195 130
4.241692e-01 -4.287902e-01 -1.816092e+00 20 11 3
9.806619e-02 -4.366335e-01 -1.708627e+00 223 233 182
2.206030e-01 -5.650010e-01 -2.151287e+00 18 2 0
-2.547585e-02 -4.501990e-01 -1.651961e+00 49 139 47
6.321115e-02 -4.646156e-01 -1.696043e+00 89 164 81
5.750391e-02 -4.591539e-01 -1.691788e+00 46 121 34
5.689110e-02 -4.322670e-01 -1.679744e+00 22 91 7
2.181742e-01 -3.888959e-01 -1.717393e+00 23 33 5
8.655608e-02 -2.783088e-01 -1.961407e+00 125 24 6
-1.447811e-01 -5.618148e-01 -1.682397e+00 185 170 127
-1.101147e-01 -5.785867e-01 -1.740094e+00 21 118 22
-2.217413e-02 -5.316983e-01 -1.731920e+00 21 112 19
-1.550926e-02 -5.657019e-01 -1.724599e+00 169 154 113
1.143132e-01 -4.687118e-01 -1.722899e+00 17 109 18
6.305016e-01 -4.712679e-01 -1.663145e+00 20 21 8
1.875103e-01 -4.393472e-01 -1.721341e+00 152 169 106
1.609457e-01 -4.667805e-01 -1.717658e+00 108 131 75
3.272912e-01 -3.655278e-01 -1.711255e+00 79 73 51
-3.432656e-01 -6.151457e-01 -1.709506e+00 21 99 19
1.207551e-01 -4.568156e-01 -1.735024e+00 175 192 141
-1.644060e-01 -6.123814e-01 -1.732175e+00 113 134 69
9.936813e-02 -4.660359e-01 -1.713125e+00 22 103 13
-2.755090e-01 -5.978102e-01 -1.692835e+00 126 145 95
-3.479593e-01 -1.910591e-01 -1.836430e+00 154 107 38
-3.479593e-01 -1.910591e-01 -1.836430e+00 154 107 38
-2.627155e-01 -3.569860e-01 -1.799596e+00 103 37 0
-2.687213e-01 -3.392194e-01 -1.812167e+00 104 36 1
-2.687213e-01 -3.392194e-01 -1.812167e+00 104 36 1
-2.599704e-01 -3.220612e-01 -1.803397e+00 150 87 30
-2.599704e-01 -3.220612e-01 -1.803397e+00 150 87 30
-2.394214e-01 -2.860979e-01 -1.806402e+00 138 77 21
-2.608088e-01 -2.764426e-01 -1.813158e+00 148 89 23
-2.026157e-01 -2.357610e-01 -1.807924e+00 72 17 0
-2.190178e-01 -2.339761e-01 -1.811434e+00 80 20 0
-2.196511e-01 -2.343378e-01 -1.812714e+00 80 20 0
-3.273964e-01 -2.054080e-01 -1.830242e+00 112 59 3
-3.273964e-01 -2.054080e-01 -1.830242e+00 112 59 3
-3.805796e-01 -1.939932e-01 -1.842517e+00 123 73 11
-1.933653e-01 -1.870993e-01 -1.816893e+00 86 35 1
-3.709591e-01 -1.687280e-01 -1.844669e+00 152 107 34
-3.437696e-01 -1.683662e-01 -1.840329e+00 156 109 36
-3.467857e-01 -1.600657e-01 -1.840912e+00 108 67 13
-1.197649e-01 -1.661625e-01 -1.809759e+00 145 87 23
-1.913089e-01 -1.619930e-01 -1.821437e+00 113 59 0
-1.902330e-01 -1.487056e-01 -1.823050e+00 87 22 0
-3.520852e-01 -1.286152e-01 -1.849300e+00 149 101 29
-3.613001e-01 -1.163223e-01 -1.848236e+00 103 53 7
-2.627244e-01 -3.687830e-01 -1.799034e+00 105 42 0
-2.642504e-01 -3.009075e-01 -1.807917e+00 96 29 0
-2.314694e-01 -3.017435e-01 -1.803542e+00 145 80 21
-2.591298e-01 -2.988241e-01 -1.806461e+00 152 86 34
-3.689574e-01 -2.935871e-01 -1.828538e+00 118 59 0
-1.418158e-01 -2.945349e-01 -1.797542e+00 93 4 2
-1.447473e-01 -2.858638e-01 -1.792551e+00 170 86 49
-2.054329e-01 -2.349694e-01 -1.809696e+00 156 108 42
-2.135030e-01 -2.327530e-01 -1.811077e+00 151 100 34
-2.083451e-01 -2.222693e-01 -1.813001e+00 81 16 0
-3.195336e-01 -1.900191e-01 -1.833750e+00 158 109 33
-3.782310e-01 -1.831829e-01 -1.843400e+00 107 59 4
-3.137382e-01 -1.773638e-01 -1.834796e+00 146 98 34
-3.716108e-01 -1.552780e-01 -1.845818e+00 157 111 34
-3.552062e-01 -1.514706e-01 -1.843680e+00 152 108 33
-3.096646e-01 -1.473348e-01 -1.835401e+00 121 73 3
-3.687753e-01 -1.446795e-01 -1.847503e+00 153 109 36
-3.562185e-01 -1.433204e-01 -1.843920e+00 117 68 4
-2.105210e-01 -1.341531e-01 -1.826724e+00 80 22 5
-3.758870e-01 -1.070815e-01 -1.855913e+00 105 57 0
-3.810590e-01 -9.789811e-02 -1.856180e+00 159 116 47
-3.631975e-01 -8.467705e-02 -1.860538e+00 92 39 4
-3.415242e-01 -8.132749e-02 -1.853464e+00 138 54 17
-3.914621e-01 -6.983119e-02 -1.855516e+00 168 108 44
-3.850477e-01 -3.158541e-01 -1.827802e+00 111 56 3
-3.850638e-01 -2.712890e-01 -1.834799e+00 110 55 1
-2.686435e-01 -2.544117e-01 -1.817520e+00 80 14 3
-3.849885e-01 -2.242134e-01 -1.838516e+00 113 53 4
-3.849885e-01 -2.242134e-01 -1.838516e+00 113 53 4
-3.525237e-01 -1.964491e-01 -1.836501e+00 100 47 0
-3.817591e-01 -1.872252e-01 -1.843120e+00 154 107 34
-2.211618e-01 -1.850285e-01 -1.819616e+00 90 40 0
-3.852259e-01 -1.773034e-01 -1.847960e+00 113 66 0
-2.885778e-01 -1.791298e-01 -1.830583e+00 99 53 0
-2.963498e-01 -1.725642e-01 -1.832275e+00 148 102 40
-3.759409e-01 -1.576557e-01 -1.846127e+00 121 64 1
-1.140089e-01 -1.672987e-01 -1.810115e+00 76 16 3
-4.096398e-01 -1.522906e-01 -1.854822e+00 122 45 5
-2.263469e-01 -1.337675e-01 -1.830707e+00 72 16 6
-3.472626e-01 -1.163682e-01 -1.848908e+00 162 113 47
-3.363959e-01 -1.130098e-01 -1.848775e+00 92 44 1
-4.115894e-01 -9.048347e-02 -1.865746e+00 130 56 13
-3.740855e-01 -7.898857e-02 -1.860103e+00 162 114 42
-3.904784e-01 -4.899428e-02 -1.867334e+00 182 105 65
-4.118472e-01 -3.214877e-02 -1.870983e+00 123 57 9
-3.054420e-01 2.794439e-02 -1.875911e+00 24 20 26
1.801920e-01 -4.552211e-01 -1.734223e+00 180 191 125
1.708465e-01 -4.490883e-01 -1.725300e+00 180 191 125
8.559577e-02 -4.790227e-01 -1.728890e+00 189 200 131
2.395477e-01 -3.987209e-01 -1.723958e+00 97 134 54
-1.515500e-01 -2.692183e-01 -1.804982e+00 130 28 0
1.010803e-01 -4.526281e-01 -1.725972e+00 121 179 95
1.335851e-01 -4.807614e-01 -1.753966e+00 12 83 9
-2.024349e-01 -1.456161e-01 -1.816861e+00 107 47 0
-2.771464e-01 -9.646925e-02 -1.797706e+00 136 40 6
2.004304e-01 -4.058873e-01 -1.728130e+00 24 23 0
-3.192351e-01 -1.226967e-01 -1.836694e+00 149 98 34
-3.633647e-01 -9.312810e-02 -1.856311e+00 153 99 18
-9.617341e-02 -8.500123e-02 -1.811938e+00 130 75 9
-3.853436e-01 -4.417227e-02 -1.855076e+00 142 57 17
-3.719460e-01 -4.544000e-02 -1.833564e+00 180 102 63
-3.721589e-01 -4.509433e-02 -1.833366e+00 180 102 63
-2.042665e-01 -2.361739e-01 -1.811602e+00 156 108 42
-2.543678e-01 -1.033816e-01 -1.806737e+00 163 110 35
-3.791868e-01 -2.217789e-01 -1.852290e+00 99 47 1
-3.225496e-01 -2.078098e-01 -1.831179e+00 99 47 0
-3.444401e-01 -1.223672e-01 -1.839844e+00 106 52 2
1.521657e-01 -4.219292e-01 -1.528870e+00 22 22 12
1.521657e-01 -4.219292e-01 -1.528870e+00 22 22 12
9.555700e-01 -1.153529e+00 -1.930465e+00 191 175 141
3.694274e-01 -4.444018e-01 -1.488206e+00 42 37 27
2.104452e-01 -4.795209e-01 -1.733249e+00 4 11 2
4.673461e-01 -6.152178e-01 -1.546804e+00 83 74 44
1.527529e+00 -1.608590e+00 -2.444064e+00 40 36 15
3.499538e-01 -4.901097e-01 -1.463632e+00 72 62 33
5.244610e-01 -8.514445e-01 -2.405402e+00 13 89 9
2.806654e-01 -5.022579e-01 -1.831926e+00 29 92 19
-3.029523e-01 -1.616869e-01 -1.962118e+00 104 50 3
-1.694260e-01 -1.520811e-01 -1.646458e+00 89 28 1
1.112459e-01 -2.860305e-01 -1.387031e+00 164 154 98
1.357538e-01 -4.235115e-01 -1.737561e+00 13 10 2
3.901708e-01 -7.118915e-01 -1.689217e+00 130 125 95
-4.369588e-01 2.131294e-01 -1.913374e+00 115 98 82
2.068836e-01 -4.377579e-01 -1.728346e+00 23 112 21
6.714253e-01 -5.933676e-01 -1.620723e+00 181 166 130
1.838886e-02 -5.066616e-01 -1.726837e+00 25 121 24
-6.242166e-02 -5.854214e-01 -1.726398e+00 169 155 110
1.908375e-02 -2.481016e-01 -1.794226e+00 17 12 6
6.422028e-01 -6.700653e-01 -1.630816e+00 61 50 17
1.664049e-01 -4.495359e-01 -1.723211e+00 172 186 124
1.747425e-01 -4.349906e-01 -1.719195e+00 194 218 151
8.021425e-02 -4.896619e-01 -1.728563e+00 15 95 6
1.686263e-01 -4.619087e-01 -1.723219e+00 17 84 9
1.686263e-01 -4.619087e-01 -1.723219e+00 17 84 9
1.487699e-01 -4.498287e-01 -1.724967e+00 66 149 61
-3.824628e-01 -3.318862e-01 -1.832802e+00 113 57 2
-1.922216e-01 -2.750966e-01 -1.785225e+00 119 38 1
6.136025e-02 -2.465501e-01 -1.367128e+00 202 184 148
-4.153769e-02 -3.807555e-01 -1.583613e+00 39 35 20
2.031115e+00 -2.106917e+00 -2.867288e+00 39 36 10
1.208463e-01 -2.892187e-01 -1.385015e+00 203 186 142
-2.450540e-01 -4.656754e-02 -1.460678e+00 206 144 105
1.334516e+00 -1.409322e+00 -2.274061e+00 31 26 5
2.320920e-01 -4.660962e-01 -1.807863e+00 186 199 144
8.544322e-02 -2.937606e-01 -1.514679e+00 32 29 11
-2.416482e-01 -4.044176e-02 -1.473444e+00 46 20 24
-1.433693e-01 -1.585155e-01 -1.769556e+00 98 35 0
-1.363233e-01 -9.423019e-02 -1.680972e+00 90 34 2
-3.924715e-01 -2.441295e-01 -1.359393e+00 113 44 0
-3.345600e-01 -2.363110e-01 -1.562051e+00 153 88 33
-3.970198e-01 -2.406068e-01 -1.350934e+00 167 99 42
-4.529155e-01 -1.789557e-01 -1.220278e+00 119 58 4
3.877603e-01 -4.511261e-01 -1.501020e+00 47 42 29
1.383359e-01 -2.965403e-01 -1.385031e+00 201 183 146
4.992267e-02 -2.300161e-01 -1.433771e+00 102 95 73
-1.466008e-01 -8.573517e-02 -1.692173e+00 88 32 1
-2.511917e-01 -5.301128e-02 -1.428599e+00 136 36 8
2.004506e-01 -4.486761e-01 -1.784283e+00 33 44 10
1.448833e-01 -2.937897e-01 -1.432978e+00 30 26 15
3.616816e-01 -4.802184e-01 -1.466711e+00 100 87 42
-7.689808e-02 -3.970378e-02 -1.715657e+00 131 39 5
-1.997743e-01 6.492651e-02 -1.713161e+00 94 82 92
-1.349528e-01 -1.150591e-01 -1.411154e+00 165 156 106
-1.899213e-01 4.203835e-02 -1.489493e+00 41 32 42
-1.792111e-04 -1.988029e-01 -1.754872e+00 194 175 133
6.850003e-01 -5.077139e-01 -1.694194e+00 26 26 18
-3.813618e-02 -3.271288e-01 -1.739224e+00 121 92 57
7.016916e-01 -6.306232e-01 -1.647528e+00 68 59 24
5.650460e-02 -1.968108e-01 -1.761192e+00 28 21 3
-1.725929e-01 -2.074753e-01 -1.804033e+00 130 39 3
2.599138e-01 -1.282960e-01 -1.689840e+00 131 124 78
1.315693e-01 -4.656718e-01 -1.718887e+00 40 93 19
1.111374e-02 -1.406614e-02 -1.843299e+00 126 22 3
2.395487e-01 -1.398650e-01 -1.743927e+00 25 21 1
-3.519048e-01 -7.576810e-02 -1.836073e+00 131 45 6
-1.288881e-01 -2.580710e-01 -1.994691e+00 155 104 22
-1.839181e-01 -2.227171e-01 -1.826112e+00 137 87 20
-2.514499e-01 -9.871555e-02 -1.794650e+00 168 84 50
1.793532e-01 -5.059964e-01 -1.734961e+00 17 22 8
-3.464950e-01 -1.430669e-01 -1.931187e+00 118 69 0
-2.508119e-01 -1.289888e-01 -1.835871e+00 155 103 42
-3.833006e-01 -9.380809e-02 -1.888932e+00 146 96 35
-4.158216e-01 -3.373492e-02 -1.911875e+00 99 20 3
2.906144e-01 -4.108031e-01 -1.717402e+00 10 9 4
4.178308e-01 -8.341201e-01 -1.602620e+00 157 143 95
4.028931e-01 -5.593548e-01 -1.543325e+00 80 75 55
2.530853e-01 -4.322703e-01 -1.724816e+00 128 141 92
2.040317e-01 -4.906204e-01 -1.747425e+00 141 165 114
1.981744e-01 -4.668062e-01 -1.744767e+00 198 215 153
1.928000e-01 -4.632881e-01 -1.739454e+00 198 215 153
2.475146e-01 -4.022324e-01 -1.745070e+00 133 118 57
-4.065621e-01 -1.371845e-01 -1.930447e+00 165 111 50
-3.527784e-01 -1.175744e-01 -1.864297e+00 101 53 12
-3.532359e-01 -1.178887e-01 -1.863341e+00 101 53 12
-3.652866e-01 -1.123367e-01 -1.875536e+00 102 51 10
-3.654762e-01 -1.121273e-01 -1.875392e+00 102 51 10
-4.006086e-01 -8.425691e-02 -1.885962e+00 153 96 31
-2.236198e-01 -1.104626e-01 -1.795973e+00 157 99 29
-3.792838e-01 -4.241690e-02 -1.836257e+00 163 89 56
-3.895083e-01 -3.355298e-02 -1.852834e+00 162 87 53
-3.899849e-01 -3.426393e-02 -1.848628e+00 162 87 53
3.171666e-01 -6.689879e-01 -1.557196e+00 69 69 59
-9.034889e-02 -3.444238e-01 -1.984490e+00 90 1 0
-2.322047e-01 -2.907706e-01 -1.951734e+00 104 48 11
-9.262053e-02 -2.850043e-01 -1.939505e+00 87 0 0
-3.878544e-01 -1.976896e-01 -1.950890e+00 153 104 37
-3.248400e-01 -2.052411e-01 -1.910930e+00 151 103 30
-3.177438e-01 -2.063104e-01 -1.912431e+00 150 100 29
-3.984426e-01 -1.915906e-01 -1.958188e+00 146 97 26
-3.571624e-01 -1.942225e-01 -1.922861e+00 150 106 32
-3.571624e-01 -1.942225e-01 -1.922861e+00 150 106 32
-3.689872e-01 -1.901170e-01 -1.929419e+00 154 110 36
-3.761114e-01 -1.867477e-01 -1.932381e+00 152 107 38
-3.758867e-01 -1.866107e-01 -1.932962e+00 152 107 38
-3.490977e-01 -1.679024e-01 -1.895687e+00 149 106 30
-3.092509e-01 -1.669474e-01 -1.867740e+00 143 95 29
-3.450870e-01 -1.476678e-01 -1.879250e+00 114 60 0
-3.450870e-01 -1.476678e-01 -1.879250e+00 114 60 0
-3.599379e-01 -1.424596e-01 -1.888108e+00 111 57 0
-3.610404e-01 -1.427082e-01 -1.886074e+00 111 57 0
-3.644389e-01 -1.060638e-01 -1.865987e+00 152 104 38
-3.783922e-01 -9.976339e-02 -1.874524e+00 148 103 38
-3.648724e-01 -8.198971e-02 -1.853436e+00 85 30 0
-3.503653e-01 -8.049286e-02 -1.839714e+00 161 110 54
-3.668223e-01 -7.379455e-02 -1.852473e+00 156 111 46
-3.906480e-01 -6.895519e-02 -1.868738e+00 92 40 1
-3.905846e-01 -6.886066e-02 -1.868825e+00 92 40 1
-3.970362e-01 -6.478082e-02 -1.879033e+00 157 90 38
-3.771270e-01 -7.007501e-02 -1.855674e+00 162 112 48
-3.614203e-01 -7.164290e-02 -1.839281e+00 134 47 12
-1.074127e-01 -1.289149e-01 -1.820433e+00 133 78 24
-3.736014e-01 -6.588954e-02 -1.848592e+00 129 46 8
-1.151491e-01 -9.762969e-02 -1.791192e+00 66 19 1
-1.148726e-01 -8.877338e-02 -1.776036e+00 125 74 14
-2.067262e-01 -5.365518e-01 -2.149133e+00 172 99 49
-3.874060e-01 -5.094845e-01 -2.218489e+00 177 110 62
-1.959730e-01 -5.207017e-01 -2.159430e+00 101 41 0
-3.555980e-01 -4.496018e-01 -2.091460e+00 109 54 1
-4.000822e-01 -4.392983e-01 -2.090158e+00 156 95 36
-4.000822e-01 -4.392983e-01 -2.090158e+00 156 95 36
-4.268481e-01 -4.546349e-01 -2.205726e+00 99 39 3
-3.625468e-01 -4.345220e-01 -2.076823e+00 159 97 38
-3.556965e-01 -4.387448e-01 -2.097054e+00 159 97 38
-3.992188e-01 -4.459682e-01 -2.176581e+00 111 59 7
-3.738957e-01 -4.445563e-01 -2.154193e+00 156 98 34
-3.417069e-01 -4.438646e-01 -2.129390e+00 99 38 0
-4.048010e-01 -4.238680e-01 -2.125961e+00 155 95 35
-2.108629e-01 -4.579792e-01 -2.091874e+00 148 86 29
-1.841370e-01 -4.669168e-01 -2.104873e+00 155 88 33
-4.168979e-01 -4.048227e-01 -2.112566e+00 105 46 4
-2.287103e-01 -4.455081e-01 -2.090288e+00 98 27 1
-4.229781e-01 -4.074536e-01 -2.162276e+00 96 38 0
-2.106690e-01 -4.388523e-01 -2.080326e+00 145 82 28
-3.723182e-01 -3.840409e-01 -2.056539e+00 91 34 0
-3.272577e-01 -3.897341e-01 -2.041980e+00 158 90 36
-2.457018e-01 -3.937087e-01 -2.022834e+00 101 27 0
-2.391440e-01 -3.811941e-01 -2.034686e+00 98 23 4
-3.558634e-01 -3.506842e-01 -2.021022e+00 113 57 3
-5.274538e-02 -4.369054e-01 -2.084979e+00 102 10 0
-2.325429e-01 -3.799267e-01 -2.031693e+00 152 84 29
-2.373606e-01 -3.783996e-01 -2.020375e+00 152 84 29
-4.190129e-01 -3.033799e-01 -2.037313e+00 94 35 2
-1.911622e-01 -3.168362e-01 -1.973561e+00 150 96 29
-4.583042e-01 -2.686726e-01 -2.111598e+00 153 64 32
-8.218749e-02 -3.381843e-01 -1.986868e+00 131 43 21
-9.593729e-02 -3.259161e-01 -1.968574e+00 91 3 0
-4.392195e-02 -3.425683e-01 -2.017426e+00 78 1 0
-6.124621e-02 -3.320503e-01 -2.007266e+00 86 0 0
-1.705061e-01 -2.893419e-01 -1.947405e+00 115 53 0
-8.233630e-02 -2.827219e-01 -1.943958e+00 80 1 0
-4.703355e-01 -1.970479e-01 -2.084428e+00 112 33 4
-3.748490e-01 -2.036250e-01 -1.943909e+00 154 109 39
-3.748490e-01 -2.036250e-01 -1.943909e+00 154 109 39
-1.795109e-01 -2.333631e-01 -1.898901e+00 77 14 0
-1.807988e-01 -2.184025e-01 -1.887041e+00 77 23 0
-3.122636e-01 -1.774907e-01 -1.887720e+00 148 102 41
-3.816065e-01 -1.531226e-01 -1.918316e+00 147 101 32
-3.193881e-01 -1.634303e-01 -1.875013e+00 143 94 26
-3.609119e-01 -1.488009e-01 -1.895565e+00 150 102 38
-3.697297e-01 -1.365411e-01 -1.897946e+00 109 56 0
-3.638167e-01 -9.948930e-02 -1.864638e+00 87 40 1
-3.638167e-01 -9.948930e-02 -1.864638e+00 87 40 1
-2.668985e-01 -1.009277e-01 -1.803732e+00 126 40 1
-2.639991e-01 -9.997381e-02 -1.797868e+00 128 46 4
-3.330751e-01 -8.263385e-02 -1.829852e+00 130 45 8
-1.190206e-01 -1.313493e-01 -1.818539e+00 123 68 20
-3.816459e-01 -6.471414e-02 -1.866755e+00 155 99 40
-1.116476e-01 -8.073979e-02 -1.778015e+00 82 28 0
-1.140517e-01 -7.561940e-02 -1.776837e+00 146 84 27
4.404418e-01 -8.585818e-01 -1.608464e+00 156 141 100
-1.810936e-01 -5.501356e-01 -2.172093e+00 173 101 48
-4.029873e-01 -4.670029e-01 -2.195334e+00 99 39 6
-4.030437e-01 -4.562548e-01 -2.190906e+00 155 97 42
-2.388420e-01 -4.528476e-01 -2.068611e+00 100 31 3
-3.747966e-01 -4.254759e-01 -2.110824e+00 106 53 1
-3.747966e-01 -4.254759e-01 -2.110824e+00 106 53 1
-4.139154e-01 -4.022627e-01 -2.140607e+00 153 92 35
-3.472387e-01 -3.901968e-01 -2.037694e+00 98 35 0
-3.949489e-01 -3.752879e-01 -2.071703e+00 100 43 1
-2.304531e-01 -4.015734e-01 -2.050579e+00 148 80 34
-4.177501e-01 -3.543701e-01 -2.080192e+00 151 90 38
-1.722533e-01 -3.674187e-01 -2.014721e+00 98 36 1
-4.139807e-01 -2.972786e-01 -2.031905e+00 154 95 33
-4.683768e-01 -2.850574e-01 -2.128377e+00 118 27 2
-2.331051e-01 -3.112483e-01 -1.970453e+00 103 39 0
-1.847157e-01 -3.192811e-01 -1.970946e+00 145 89 28
-2.210775e-01 -2.955737e-01 -1.954038e+00 84 31 0
-2.210775e-01 -2.955737e-01 -1.954038e+00 84 31 0
-3.173815e-01 -2.590055e-01 -1.953687e+00 77 16 3
-3.268373e-01 -2.521588e-01 -1.938372e+00 161 103 40
-3.966267e-01 -2.267491e-01 -1.985288e+00 159 102 46
-4.943792e-01 -1.958415e-01 -2.115164e+00 147 77 41
-3.910786e-01 -1.931527e-01 -1.952782e+00 147 100 30
-1.855954e-01 -2.318966e-01 -1.897958e+00 149 91 41
-2.922139e-01 -1.914408e-01 -1.887128e+00 149 94 30
-3.071897e-01 -1.755339e-01 -1.885302e+00 95 49 1
-5.025154e-01 -1.172586e-01 -2.064438e+00 117 54 11
-2.071910e-01 -1.560637e-01 -1.835725e+00 122 69 3
-1.991292e-01 -1.572732e-01 -1.833072e+00 118 65 4
-1.991292e-01 -1.572732e-01 -1.833072e+00 118 65 4
-3.756608e-01 -7.920538e-02 -1.863643e+00 103 45 0
-3.737501e-01 -7.509655e-02 -1.851467e+00 107 56 0
-4.389122e-01 2.127683e-01 -1.863578e+00 92 82 80
6.151651e-01 -6.101600e-01 -1.580315e+00 190 172 136
-1.606769e-01 -5.963751e-01 -1.740751e+00 24 130 26
-6.638828e-02 -5.583718e-01 -1.740727e+00 28 129 31
-3.069781e-01 -6.547045e-01 -1.746281e+00 22 116 22
-5.130571e-03 -5.407352e-01 -1.727466e+00 27 108 17
4.010127e-02 -5.022687e-01 -1.729134e+00 134 159 89
4.096578e-02 -5.024283e-01 -1.729094e+00 134 159 89
-2.950371e-01 1.945186e-02 -1.873048e+00 84 62 60
-1.907724e-01 -1.152330e-01 -1.807998e+00 100 39 0
-1.907724e-01 -1.152330e-01 -1.807998e+00 100 39 0
-2.046793e-01 -1.449788e-01 -1.778118e+00 108 47 0
-2.056275e-01 -1.433139e-01 -1.804174e+00 117 62 1
-3.683304e-01 -7.685986e-02 -1.840825e+00 157 105 32
-3.695062e-01 -7.473404e-02 -1.831983e+00 157 105 32
-2.997520e-01 2.063776e-02 -1.854837e+00 82 54 53
-2.124852e-01 -2.146803e-01 -1.762037e+00 152 95 25
-1.300597e-01 -9.895644e-02 -1.813318e+00 95 36 0
3.098340e-01 -4.075351e-01 -1.818440e+00 28 25 16
-3.374647e-01 -8.082828e-01 -1.872187e+00 21 119 20
1.157206e-01 -4.569767e-01 -1.727485e+00 157 196 125
-2.622633e-01 -3.625421e-01 -1.815121e+00 149 87 29
-2.262894e-01 -8.579481e-01 -1.974820e+00 80 121 49
-2.274195e-01 -2.996496e-01 -1.803440e+00 149 89 27
-2.336564e-01 -2.131497e-01 -1.769713e+00 104 45 0
-3.987456e-01 -1.144026e-01 -1.831951e+00 180 116 63
-1.356231e-01 -8.208187e-02 -1.802234e+00 94 38 0
3.747855e-01 -7.101332e-01 -1.669957e+00 71 67 50
8.993495e-02 -4.826352e-01 -1.727378e+00 94 125 55
8.344007e-03 -5.108853e-01 -1.736994e+00 20 103 18
4.124942e-02 -5.020540e-01 -1.728372e+00 122 157 84
2.006957e-01 -4.083184e-01 -1.721787e+00 157 175 113
-9.864034e-03 -5.273804e-01 -1.745947e+00 23 102 15
2.378059e-01 -4.323638e-01 -1.743997e+00 24 107 22
1.683002e-01 -4.588762e-01 -1.736712e+00 12 97 4
-4.060915e-01 -7.106911e-01 -1.768028e+00 70 95 29
-5.860471e-03 -5.347485e-01 -1.745039e+00 25 91 4
8.334224e-02 -4.984488e-01 -1.754332e+00 137 178 110
-3.878789e-01 -7.192137e-01 -1.758146e+00 20 97 14
-3.965880e-01 -7.066449e-01 -1.751056e+00 32 104 12
8.530407e-02 -5.009579e-01 -1.741812e+00 49 138 45
8.530407e-02 -5.009579e-01 -1.741812e+00 49 138 45
-3.265687e-01 -7.086402e-01 -1.782154e+00 63 92 24
-3.350519e-01 -2.064265e-01 -1.951194e+00 116 64 8
-1.768050e-01 -1.201729e-01 -1.867983e+00 89 36 0
-4.397190e-01 -2.071267e-01 -2.083283e+00 150 66 34
-3.647188e-01 -7.932665e-02 -1.864169e+00 153 100 36
-3.883029e-01 -4.746533e-02 -1.864116e+00 165 84 47
-1.015989e-01 -7.483024e-02 -1.774063e+00 133 73 8
2.192443e-01 -3.758489e-01 -1.710022e+00 31 27 9
4.475123e-01 -6.136291e-01 -1.532365e+00 101 88 50
3.639061e-01 -5.571695e-01 -1.530803e+00 89 83 61
1.923215e-01 -4.629644e-01 -1.755431e+00 17 91 6
-2.194027e-01 -1.302389e+00 -2.272791e+00 44 99 27
-1.664448e-01 -1.139643e+00 -2.174025e+00 190 208 149
3.895367e-01 -7.648023e-01 -1.572805e+00 136 125 70
2.843716e-01 -6.123079e-01 -1.887559e+00 22 27 7
2.104655e-01 -5.016488e-01 -1.747073e+00 10 13 5
-1.305556e-01 -1.413275e-01 -1.831614e+00 81 23 1
-1.955616e-01 -1.170909e-01 -1.825317e+00 99 47 12
2.961770e-01 -5.750371e-01 -1.600214e+00 56 56 44
1.787318e-01 -5.222759e-01 -1.781401e+00 24 93 11
-4.091807e-01 -4.373325e-01 -2.105123e+00 163 98 39
-4.412600e-01 -4.288472e-01 -2.142454e+00 174 103 45
-3.165716e-01 -3.993255e-01 -2.044376e+00 110 50 10
-4.603134e-01 -1.960692e-01 -1.982750e+00 151 67 33
-3.635697e-01 -2.019572e-01 -1.922413e+00 103 52 2
-3.672711e-01 -1.898363e-01 -1.943092e+00 154 110 36
-3.932703e-01 -1.793392e-01 -1.938043e+00 151 108 36
-3.940300e-01 -1.788460e-01 -1.935349e+00 151 108 36
-3.407912e-01 -1.859994e-01 -1.908726e+00 149 101 34
