ply
format ascii 1.0
element face 0
property list uchar int vertex_indices
element vertex 948
property float x
property float y
property float z
property uchar diffuse_red
property uchar diffuse_green
property uchar diffuse_blue
end_header
-4.814674e-01 7.969300e-02 -2.609676e+00 136 92 62
-6.123979e-01 9.371287e-02 -2.511169e+00 70 30 4
-5.306907e-01 1.428995e-01 -2.473236e+00 51 15 2
-6.032602e-01 1.690327e-01 -2.260379e+00 27 7 1
-6.119492e-01 1.705969e-01 -2.241851e+00 26 13 4
-6.131975e-01 1.706450e-01 -2.229161e+00 22 15 2
-6.112475e-01 1.483928e-01 -2.204068e+00 26 7 0
-6.199736e-01 1.697690e-01 -2.206722e+00 25 10 0
-6.207905e-01 1.650030e-01 -2.194204e+00 25 11 2
-6.290103e-01 1.931552e-01 -2.194645e+00 129 111 77
-6.357235e-01 1.934142e-01 -2.172514e+00 23 11 6
-6.160540e-01 2.819662e-01 -2.259576e+00 151 137 119
-5.555853e-01 2.937803e-01 -2.285180e+00 151 137 119
-6.329620e-01 1.628587e-01 -2.092745e+00 19 4 1
-6.545983e-01 2.264742e-01 -2.134806e+00 126 114 99
-5.786410e-01 -8.873463e-02 -2.424769e+00 98 65 47
-5.729762e-01 -9.572308e-02 -2.413154e+00 46 13 1
-5.656876e-01 -7.836309e-02 -2.419766e+00 93 65 44
-4.951237e-01 -1.597964e-01 -2.343686e+00 99 89 80
-6.473499e-01 -1.739440e-02 -2.388825e+00 47 15 4
-5.261361e-01 -1.054550e-02 -2.380085e+00 78 20 1
-5.878571e-01 1.622006e-01 -2.438415e+00 125 81 56
-5.892823e-01 1.904892e-01 -2.317726e+00 35 12 3
-5.578005e-01 2.215427e-01 -2.347422e+00 21 5 0
-5.906005e-01 2.097276e-01 -2.311166e+00 28 17 3
-5.910183e-01 2.213651e-01 -2.321897e+00 115 98 52
-6.003080e-01 2.048335e-01 -2.295704e+00 33 13 6
-5.952565e-01 2.234010e-01 -2.311804e+00 40 13 4
-6.323506e-01 1.587228e-01 -2.226178e+00 21 8 0
-6.199342e-01 1.589324e-01 -2.191129e+00 100 90 62
-6.330994e-01 1.579944e-01 -2.187288e+00 100 90 62
-5.702195e-01 2.583108e-01 -2.294891e+00 133 125 111
-5.702195e-01 2.583108e-01 -2.294891e+00 133 125 111
-6.222415e-01 1.656409e-01 -2.181510e+00 113 93 28
-6.130088e-01 2.905531e-01 -2.265514e+00 24 8 1
-6.130088e-01 2.905531e-01 -2.265514e+00 24 8 1
-6.551544e-01 2.875242e-01 -2.181007e+00 24 14 2
-6.554991e-01 2.902849e-01 -2.173579e+00 120 106 68
-5.825495e-01 -9.685123e-02 -2.480781e+00 64 24 1
-4.320466e-01 -1.950001e-01 -2.434540e+00 39 7 3
-5.300238e-01 -1.641429e-01 -2.379704e+00 39 7 3
-4.796176e-01 -1.146251e-01 -2.476703e+00 91 59 38
-5.792695e-01 -7.666851e-02 -2.426002e+00 74 42 29
-5.792695e-01 -7.666851e-02 -2.426002e+00 74 42 29
-5.155450e-01 -1.513375e-01 -2.352939e+00 22 9 1
-5.155450e-01 -1.513375e-01 -2.352939e+00 22 9 1
-4.919796e-01 -4.952606e-02 -2.510789e+00 94 49 28
-5.807478e-01 -3.385194e-02 -2.450712e+00 94 49 28
-5.036109e-01 1.126692e-02 -2.514298e+00 109 74 58
-5.912995e-01 3.022541e-02 -2.406649e+00 61 24 4
-5.763035e-01 4.832527e-02 -2.437777e+00 92 64 50
-6.402975e-01 4.662339e-02 -2.381172e+00 76 46 32
-5.465759e-01 2.506031e-02 -2.326104e+00 94 22 1
-6.120752e-01 3.198862e-02 -2.293806e+00 94 22 1
-5.506849e-01 2.074630e-01 -2.374297e+00 37 14 5
-5.506849e-01 2.074630e-01 -2.374297e+00 37 14 5
-5.779173e-01 1.949991e-01 -2.335357e+00 39 20 5
-6.325604e-01 1.584053e-01 -2.210276e+00 96 90 70
-6.424173e-01 1.849476e-01 -2.106788e+00 43 34 24
-6.586845e-01 2.588843e-01 -2.154183e+00 116 103 83
-5.901410e-01 2.869574e-01 -2.088004e+00 21 12 16
-4.651045e-01 -2.625861e-02 -2.117447e+00 71 10 9
-4.196328e-01 -1.394817e-01 -2.232061e+00 74 11 1
-5.341016e-01 -7.075084e-02 -2.151186e+00 73 9 0
-4.130684e-01 -7.921611e-02 -2.143475e+00 81 8 2
-5.719438e-01 -1.590311e-02 -2.109708e+00 67 2 0
-4.564187e-01 -6.106836e-03 -2.014835e+00 73 7 1
-2.811464e-01 -3.390762e-01 -2.378902e+00 148 72 44
-3.744658e-01 -1.363309e-01 -2.149320e+00 83 6 0
-5.128277e-01 -7.712577e-02 -2.127600e+00 65 5 0
-5.770857e-01 2.753961e-02 -2.054719e+00 64 1 0
-5.324048e-01 8.647089e-03 -2.024358e+00 70 1 0
-5.909189e-01 5.485015e-02 -2.067180e+00 107 40 21
-5.554412e-01 2.269853e-02 -2.025339e+00 104 38 23
-5.392087e-01 1.522688e-02 -2.008871e+00 71 0 1
-5.605916e-01 4.838694e-02 -1.979052e+00 55 3 0
-4.843854e-01 -8.125589e-02 -2.123438e+00 76 5 0
-5.852777e-01 2.769800e-02 -2.055415e+00 106 42 31
-6.312471e-01 5.096375e-01 -1.961162e+00 23 22 27
-1.331396e+00 3.041886e+00 -3.179921e+00 91 85 49
2.173039e-01 -1.822949e-01 -2.200568e+00 34 59 8
-4.393074e-01 -2.226976e-03 -2.020572e+00 66 6 2
2.345749e-01 -4.442402e-01 -2.233293e+00 15 39 5
-2.736752e-01 -2.677679e-01 -2.351532e+00 89 10 2
-4.398580e-01 -1.285557e-01 -2.299838e+00 57 1 0
-4.506587e-01 -8.103496e-02 -2.266944e+00 68 1 0
-3.118446e-01 -1.392568e-01 -2.188730e+00 76 8 0
-2.730081e-01 -1.398615e-01 -2.190997e+00 79 10 0
-3.135510e-01 -1.202986e-01 -2.190020e+00 75 6 0
-3.135510e-01 -1.202986e-01 -2.190020e+00 75 6 0
-3.452135e-01 -8.457002e-02 -2.175090e+00 69 4 2
-3.425225e-01 -7.771941e-02 -2.156439e+00 71 4 2
-4.025125e-01 -3.450485e-02 -2.145619e+00 65 2 0
-4.025125e-01 -3.450485e-02 -2.145619e+00 65 2 0
-4.923177e-01 2.333159e-02 -2.086845e+00 48 1 0
-6.362491e-01 1.978809e-01 -2.219805e+00 130 111 69
-3.069312e-01 1.899007e-02 -2.024583e+00 81 11 1
-5.022453e-01 5.785638e-02 -2.050472e+00 61 4 2
-6.330925e-01 2.827653e-01 -2.235911e+00 57 42 16
-6.492553e-01 3.010414e-01 -2.190735e+00 51 36 5
6.756776e-02 8.185455e-01 -2.687901e+00 54 51 8
-6.721001e-01 2.368642e-01 -2.105399e+00 131 105 68
-6.394031e-01 4.562386e-01 -2.030874e+00 120 87 57
2.051222e-01 -5.003045e-01 -2.231040e+00 93 105 69
2.811967e-01 -4.839838e-01 -2.252501e+00 23 46 9
-5.536550e-01 -7.655487e-02 -2.441875e+00 51 15 2
-4.560892e-01 -8.840978e-02 -2.283058e+00 61 3 0
-4.630670e-01 -9.257032e-02 -2.249365e+00 69 1 0
-4.699707e-01 -9.990824e-02 -2.198386e+00 106 36 24
-4.080820e-01 -7.392604e-02 -2.198215e+00 76 1 0
-4.945783e-01 -3.452151e-02 -2.211818e+00 107 41 22
-4.945783e-01 -3.452151e-02 -2.211818e+00 107 41 22
-2.772552e-01 -1.057864e-01 -2.142483e+00 77 12 0
-6.224296e-01 2.285439e-01 -2.294024e+00 133 118 94
-6.479211e-01 2.331284e-01 -2.138347e+00 138 122 112
-2.901077e-01 4.137203e-02 -1.943374e+00 132 94 41
-6.934997e-01 2.249572e-01 -2.083426e+00 98 52 8
-6.217944e-01 3.744123e-01 -2.187491e+00 193 175 136
-6.602518e-01 5.296719e-01 -1.939841e+00 172 157 128
-4.255908e-01 -1.961944e-01 -2.404181e+00 63 54 49
-5.263873e-01 -5.998475e-02 -2.483860e+00 104 53 34
-4.735551e-01 -5.700398e-02 -2.260482e+00 65 6 2
-3.149510e-01 -7.532244e-02 -2.097465e+00 82 10 0
-4.817824e-01 3.426718e-02 -2.140079e+00 68 6 2
-6.023495e-01 2.422597e-01 -2.333324e+00 88 68 37
-6.109341e-01 1.455824e-01 -2.215828e+00 103 80 30
-6.289511e-01 2.401897e-01 -2.268233e+00 141 129 117
-5.197419e-01 1.161802e-01 -2.069228e+00 76 5 1
-6.711209e-01 2.513743e-01 -2.156023e+00 38 22 11
-6.429665e-01 4.663252e-01 -2.041750e+00 90 56 20
-6.104533e-01 4.961235e-01 -2.049558e+00 191 169 128
-7.201457e-01 4.692156e-01 -2.003204e+00 187 169 129
-6.352867e-01 1.779441e-01 -2.112567e+00 26 20 26
-6.010913e-01 2.140513e-01 -2.277793e+00 124 100 34
1.764259e-01 -2.570733e-01 -2.201925e+00 13 40 2
1.081425e-01 -9.924124e-02 -2.172992e+00 88 130 65
-5.475044e-01 2.160581e-01 -2.423425e+00 83 62 1
-5.619949e-01 2.084640e-01 -2.393893e+00 61 39 0
-3.473230e-01 1.284274e-01 -1.925009e+00 135 53 32
-7.263965e-01 4.137970e-01 -2.000149e+00 106 75 31
-5.544892e-01 2.312704e-01 -2.397336e+00 84 64 11
-6.004697e-01 3.078224e-01 -2.258605e+00 140 122 87
-6.813061e-01 3.417563e-01 -2.121041e+00 131 113 47
-4.162276e-01 -1.936847e-01 -2.380712e+00 23 9 6
-4.747578e-01 -6.566211e-02 -2.192677e+00 114 44 30
-6.342060e-01 1.570318e-01 -2.091126e+00 127 92 63
-6.342060e-01 1.570318e-01 -2.091126e+00 127 92 63
-4.088113e-01 -2.190529e-01 -2.437439e+00 92 42 35
-6.122561e-01 1.576825e-01 -2.238274e+00 35 21 1
-1.605727e-01 2.995574e-01 -3.112251e+00 182 164 126
2.006825e-01 7.019847e-01 -2.904480e+00 18 18 10
3.703355e-01 8.043870e-01 -2.658148e+00 79 76 57
-2.246124e-01 6.380384e-01 -1.936817e+00 93 84 69
-5.615395e-01 2.210138e-01 -2.377387e+00 61 50 33
-5.615395e-01 2.210138e-01 -2.377387e+00 61 50 33
-5.435656e-01 2.422243e-01 -2.356761e+00 124 105 36
-5.616942e-01 2.404704e-01 -2.345655e+00 124 105 36
-3.702056e-01 5.615912e-01 -2.119172e+00 96 17 0
-4.237897e-01 2.315937e-01 -2.537269e+00 97 58 36
-3.161964e-01 5.860977e-01 -2.102333e+00 125 78 41
-1.222985e-01 -3.735510e-01 -2.449280e+00 68 22 1
-6.383834e-01 1.683226e-01 -2.094197e+00 24 16 17
-4.324861e-01 -5.790512e-03 -2.720724e+00 123 97 53
-5.018328e-01 1.933257e-01 -2.495284e+00 79 34 5
-5.821591e-01 2.123403e-01 -2.322774e+00 32 23 7
-6.353951e-01 1.788080e-01 -2.135657e+00 20 7 2
-4.850929e-01 1.243086e-01 -2.555268e+00 65 28 2
-5.784934e-01 1.980313e-01 -2.347842e+00 30 11 1
-6.129851e-01 1.537393e-01 -2.213291e+00 24 10 0
-7.043315e-01 1.918844e-01 -2.167366e+00 27 15 7
-6.315639e-01 1.878741e-01 -2.162526e+00 23 10 0
-6.337207e-01 1.783078e-01 -2.136165e+00 21 6 1
-6.366002e-01 1.640338e-01 -2.090343e+00 19 4 1
-4.693685e-01 -1.427571e-01 -2.541512e+00 66 25 1
-5.017666e-01 -6.749787e-02 -2.570990e+00 108 72 55
-4.868584e-01 -6.997886e-02 -2.583030e+00 108 72 55
-4.381197e-01 -3.818994e-02 -2.696068e+00 47 16 1
-4.701591e-01 4.603737e-02 -2.633257e+00 60 19 1
-4.886097e-01 9.099424e-02 -2.588844e+00 117 77 46
-5.090425e-01 5.602897e-02 -2.517879e+00 86 52 33
-5.399437e-01 2.946825e-02 -2.384773e+00 89 26 2
-4.899530e-01 1.416902e-01 -2.549292e+00 66 25 2
-5.532491e-01 6.219118e-02 -2.384599e+00 88 26 1
-4.631288e-01 1.531072e-01 -2.559046e+00 73 29 4
-4.970205e-01 1.610379e-01 -2.537471e+00 140 96 69
-4.975073e-01 1.615340e-01 -2.537121e+00 140 96 69
-5.377940e-01 1.288512e-01 -2.462631e+00 131 97 60
-5.377940e-01 1.288512e-01 -2.462631e+00 131 97 60
-5.044875e-01 1.626307e-01 -2.501235e+00 66 25 5
-5.289068e-01 1.629605e-01 -2.466327e+00 68 31 3
-5.004299e-01 1.825695e-01 -2.480513e+00 90 50 8
-5.157311e-01 1.991996e-01 -2.484222e+00 77 33 4
-4.730453e-01 2.315246e-01 -2.489727e+00 79 44 4
-5.204113e-01 2.256199e-01 -2.451806e+00 130 103 30
-4.751342e-01 2.358339e-01 -2.470951e+00 44 21 0
-5.829174e-01 2.154164e-01 -2.315420e+00 126 108 58
-6.675092e-01 2.282631e-01 -2.156510e+00 22 11 9
-5.785806e-01 -8.009653e-02 -2.509013e+00 77 43 29
-4.855404e-01 -1.272996e-01 -2.497267e+00 52 16 0
-4.659322e-01 5.256531e-02 -2.629008e+00 120 76 52
-4.924237e-01 5.452277e-02 -2.609085e+00 120 76 52
-4.632064e-01 8.878029e-02 -2.634518e+00 107 66 36
-4.696008e-01 9.875757e-02 -2.613975e+00 118 77 47
-4.550310e-01 1.214182e-01 -2.631390e+00 103 63 38
-4.986079e-01 8.723215e-02 -2.542111e+00 111 74 53
-4.892580e-01 1.324704e-01 -2.569830e+00 75 34 10
-5.132460e-01 1.251050e-01 -2.547805e+00 112 72 46
-5.506311e-01 4.784941e-02 -2.381423e+00 84 23 3
-4.915294e-01 1.468639e-01 -2.554607e+00 115 75 49
-4.902465e-01 1.461221e-01 -2.555204e+00 115 75 49
-5.262921e-01 1.298740e-01 -2.477256e+00 78 38 8
-5.262236e-01 1.360471e-01 -2.480724e+00 124 84 58
-5.259253e-01 1.369767e-01 -2.481657e+00 124 84 58
-5.319855e-01 1.389038e-01 -2.465391e+00 132 101 70
-5.024039e-01 2.052257e-01 -2.501581e+00 139 98 68
-5.280530e-01 1.884625e-01 -2.462439e+00 133 98 52
-5.388877e-01 2.129172e-01 -2.391282e+00 45 24 8
-4.806622e-01 2.511698e-01 -2.440629e+00 41 27 1
-6.124803e-01 1.488480e-01 -2.220051e+00 104 85 17
-6.138708e-01 1.421474e-01 -2.173858e+00 111 66 29
-6.507395e-01 1.964738e-01 -2.094337e+00 32 22 19
-6.186683e-01 2.147440e-01 -2.054915e+00 99 70 55
-6.878733e-01 2.435936e-01 -2.047417e+00 22 13 13
-5.442231e-01 6.679322e-02 -2.457624e+00 48 27 13
2.203351e-01 -5.140691e-01 -2.216849e+00 95 107 64
-6.049187e-01 -7.861352e-02 -2.474612e+00 120 81 52
-6.241203e-01 1.742320e-01 -2.294082e+00 72 44 0
-6.251987e-01 1.829167e-01 -2.275333e+00 135 110 44
-6.026609e-01 2.539173e-01 -2.279728e+00 100 89 75
2.676336e-01 -4.809256e-01 -2.234499e+00 81 90 53
-6.238631e-01 1.752776e-01 -2.266775e+00 31 9 0
-5.997103e-01 -6.317728e-02 -2.529724e+00 51 14 1
-6.045896e-01 1.979318e-01 -2.334613e+00 43 21 0
-6.083221e-01 2.118858e-01 -2.300822e+00 120 101 54
-6.297492e-01 1.577742e-01 -2.218505e+00 32 15 1
-6.335990e-01 1.507778e-01 -2.196682e+00 33 15 1
-6.422761e-01 1.742316e-01 -2.218108e+00 33 15 3
-6.203565e-01 5.339389e-02 -2.411296e+00 76 49 36
-6.203565e-01 5.339389e-02 -2.411296e+00 76 49 36
-6.099545e-01 8.749804e-02 -2.463250e+00 106 69 50
-6.046369e-01 1.491237e-02 -2.343795e+00 82 33 4
-5.841237e-01 1.636737e-01 -2.442147e+00 116 71 40
-6.330117e-01 1.592756e-01 -2.211696e+00 71 62 38
-6.325665e-01 1.719445e-01 -2.217025e+00 103 84 46
-6.633078e-01 2.326896e-01 -2.046528e+00 114 78 59
-6.448662e-01 2.221314e-01 -2.155822e+00 26 19 26
-6.448662e-01 2.221314e-01 -2.155822e+00 26 19 26
-6.194695e-01 2.072570e-01 -2.242076e+00 110 89 17
-6.539796e-01 2.604180e-01 -2.186699e+00 25 22 29
-6.532331e-01 2.602541e-01 -2.186983e+00 25 22 29
-6.139550e-01 2.695025e-01 -2.255021e+00 27 23 23
-6.606788e-01 2.174224e-01 -2.096069e+00 19 16 23
-5.236553e-01 2.173532e-01 -2.448164e+00 121 98 4
-6.176051e-01 2.536827e-01 -2.258543e+00 24 20 20
-6.243978e-01 2.535388e-01 -2.255432e+00 24 20 20
-6.121327e-01 2.850756e-01 -2.274857e+00 126 110 78
4.557704e-02 9.064620e-01 -3.125187e+00 195 181 141
-4.460159e-01 -1.500837e-01 -2.545751e+00 105 67 30
-4.338856e-01 -5.187753e-02 -2.695254e+00 48 16 2
-5.339494e-01 1.307747e-01 -2.463162e+00 124 94 52
-5.355005e-01 2.626342e-01 -2.439911e+00 76 36 0
-5.911752e-01 2.100248e-01 -2.329846e+00 126 106 54
-5.823643e-01 2.080924e-01 -2.334885e+00 126 106 54
-6.142078e-01 1.923244e-01 -2.261893e+00 28 8 1
-6.086331e-01 1.859851e-01 -2.250048e+00 29 15 1
-6.539572e-01 2.263471e-01 -2.135199e+00 123 108 92
-4.475244e-01 -1.278389e-01 -2.569653e+00 46 7 1
-4.257776e-01 -5.483163e-02 -2.700365e+00 48 16 1
-4.051216e-01 1.238955e-01 -2.746604e+00 81 32 0
-4.640705e-01 -1.229614e-01 -2.288304e+00 58 5 0
-5.248458e-01 4.381234e-02 -2.447688e+00 57 18 2
-6.055643e-01 1.735447e-01 -2.269414e+00 18 7 1
-6.153007e-01 1.630591e-01 -2.220539e+00 23 6 6
-6.150865e-01 2.516848e-01 -2.303875e+00 16 6 0
-6.317435e-01 1.757960e-01 -2.135742e+00 21 6 2
-6.326220e-01 1.761942e-01 -2.135475e+00 21 6 2
-6.612300e-01 2.544225e-01 -2.154072e+00 29 12 3
-6.363632e-01 1.818946e-01 -2.082632e+00 20 8 2
-6.373184e-01 1.818317e-01 -2.081464e+00 20 8 2
-4.358336e-01 -1.450906e-01 -2.594814e+00 56 11 0
-4.598859e-01 -8.504679e-02 -2.604284e+00 122 83 66
-4.902040e-01 -3.804403e-02 -2.506248e+00 104 63 39
-4.085969e-01 8.507884e-02 -2.739051e+00 123 82 43
-4.732654e-01 9.309989e-02 -2.618350e+00 70 25 4
-4.698838e-01 9.251937e-02 -2.621653e+00 70 25 4
-5.202194e-01 -9.617771e-03 -2.390429e+00 123 88 56
-5.278542e-01 6.204121e-02 -2.444498e+00 70 28 4
-5.300381e-01 1.705754e-01 -2.472125e+00 131 86 55
-5.327944e-01 1.906725e-01 -2.465239e+00 82 35 7
-5.662469e-01 2.379998e-01 -2.390171e+00 131 119 82
-5.937826e-01 1.752143e-01 -2.299539e+00 125 101 38
-6.120021e-01 1.587696e-01 -2.217229e+00 109 101 81
-6.175862e-01 1.866729e-01 -2.241359e+00 28 6 4
-6.152608e-01 1.688116e-01 -2.221659e+00 117 105 60
-6.208576e-01 2.288915e-01 -2.268044e+00 123 108 84
-6.332957e-01 1.780174e-01 -2.130438e+00 115 99 74
-6.474132e-01 2.468574e-01 -2.187642e+00 129 116 97
-6.574640e-01 2.644870e-01 -2.173617e+00 29 21 10
-6.689912e-01 2.592658e-01 -2.160751e+00 16 6 1
-6.371533e-01 1.874592e-01 -2.100157e+00 20 10 8
-4.479232e-01 -1.234997e-01 -2.565650e+00 54 14 5
-4.641649e-01 -8.190847e-02 -2.548598e+00 115 72 54
-4.652126e-01 3.358762e-02 -2.637619e+00 109 71 52
-4.583184e-01 3.394124e-02 -2.645078e+00 109 71 52
-4.458766e-01 8.522563e-02 -2.669025e+00 109 62 40
-4.720872e-01 8.490840e-02 -2.611092e+00 76 35 5
-5.177943e-01 -1.606404e-02 -2.381354e+00 74 23 3
-5.210728e-01 -8.143469e-03 -2.379076e+00 138 70 49
-5.296246e-01 1.356289e-02 -2.384400e+00 84 24 4
-4.799108e-01 1.724676e-01 -2.575409e+00 97 54 30
-5.388084e-01 1.148356e-01 -2.442376e+00 127 95 56
-5.395772e-01 2.582586e-02 -2.323296e+00 132 67 39
-5.149141e-01 1.574051e-01 -2.507782e+00 117 71 45
-5.453397e-01 3.740413e-02 -2.327778e+00 138 73 46
-5.441674e-01 3.594889e-02 -2.327125e+00 138 73 46
-5.197570e-01 1.572219e-01 -2.498719e+00 67 23 0
-5.255759e-01 1.502272e-01 -2.482275e+00 57 19 0
-5.263170e-01 2.273272e-01 -2.482445e+00 124 78 52
-5.758408e-01 2.250353e-01 -2.379669e+00 96 88 69
-5.992257e-01 1.901167e-01 -2.300362e+00 22 8 0
-6.023316e-01 1.674693e-01 -2.267213e+00 103 85 27
-6.078474e-01 1.542238e-01 -2.237763e+00 108 86 25
-6.019697e-01 2.184982e-01 -2.304921e+00 133 112 75
-6.091159e-01 1.656456e-01 -2.236203e+00 113 101 69
-6.473246e-01 2.316046e-01 -2.194478e+00 130 113 90
-6.048065e-01 3.179435e-01 -2.287812e+00 30 20 1
-6.445917e-01 2.915625e-01 -2.223346e+00 128 113 78
-6.629545e-01 2.601455e-01 -2.152828e+00 127 110 90
-6.741223e-01 2.638955e-01 -2.152793e+00 22 9 4
-7.029915e-01 4.020123e-01 -2.039512e+00 130 77 47
-1.328400e-01 3.568484e-01 -1.801769e+00 79 68 66
-5.728617e-01 2.000629e-01 -2.328327e+00 97 86 60
-3.688339e-01 3.820870e-01 -2.410233e+00 138 119 43
-4.939721e-01 3.137710e-01 -2.303538e+00 37 33 32
-3.895673e-01 3.698293e-01 -2.424535e+00 144 130 81
-3.090110e-01 3.127672e-01 -2.587470e+00 140 112 78
-4.093839e-01 2.813425e-01 -2.515493e+00 86 54 5
-4.678913e-01 2.937657e-01 -2.453935e+00 65 48 24
-5.104987e-01 2.730912e-01 -2.383797e+00 31 18 6
-6.072607e-01 2.541049e-01 -2.276872e+00 115 106 89
-6.569387e-01 2.525835e-01 -2.156312e+00 29 20 13
-5.761107e-01 2.491352e-01 -2.318350e+00 122 107 90
-4.657492e-01 8.207259e-02 -2.617476e+00 97 57 22
-4.111248e-01 4.106730e-02 -2.748892e+00 114 86 40
-5.151084e-01 1.441596e-01 -2.483470e+00 62 25 1
-6.050734e-01 1.893247e-01 -2.267951e+00 23 9 1
-6.106774e-01 1.836087e-01 -2.250371e+00 26 9 0
-4.795204e-01 1.282359e-01 -2.568180e+00 104 64 38
-5.896816e-01 1.837757e-01 -2.312262e+00 109 91 36
-5.899813e-01 2.220150e-01 -2.315109e+00 41 16 2
-6.158670e-01 1.566169e-01 -2.193039e+00 77 67 40
-6.172888e-01 1.527782e-01 -2.181004e+00 75 61 38
-6.613658e-01 2.550486e-01 -2.170137e+00 89 79 69
-6.675231e-01 2.661638e-01 -2.147788e+00 28 13 4
-6.011391e-01 1.303509e-01 -2.272642e+00 131 98 3
-4.807593e-01 2.681415e-01 -2.496930e+00 86 41 16
-4.953530e-01 2.614875e-01 -2.440777e+00 139 114 11
-5.899191e-01 2.372810e-01 -2.320983e+00 138 115 49
-6.189707e-01 1.743384e-01 -2.232914e+00 42 30 13
-4.917338e-01 2.387880e-01 -2.491967e+00 72 30 7
-5.931716e-01 2.193006e-01 -2.294631e+00 136 110 41
-5.931716e-01 2.193006e-01 -2.294631e+00 136 110 41
-3.811843e-01 2.623364e-02 -1.911352e+00 146 91 50
-3.735591e-01 1.792837e-01 -2.744865e+00 142 105 41
-5.847772e-01 2.918437e-01 -2.271661e+00 35 28 37
-4.360831e-01 2.560847e-01 -2.613748e+00 102 60 28
-5.811091e-01 2.535612e-01 -2.325909e+00 40 28 34
-5.846418e-01 2.422562e-01 -2.301989e+00 32 27 33
-5.978797e-01 2.705851e-01 -2.281421e+00 38 28 29
-5.913928e-01 2.817163e-01 -2.286229e+00 137 118 88
-5.288108e-01 3.217464e-01 -2.351778e+00 48 38 42
-5.656014e-01 3.063258e-01 -2.306121e+00 41 31 34
-4.707322e-01 -5.597923e-02 -2.514638e+00 55 16 0
-4.433873e-01 2.846326e-01 -2.525521e+00 98 49 17
-6.032078e-01 1.904753e-01 -2.293535e+00 30 15 2
-5.227156e-01 2.865071e-01 -2.422341e+00 46 36 35
-5.361013e-01 2.737452e-01 -2.391879e+00 45 30 30
-6.026915e-01 2.800388e-01 -2.267210e+00 147 127 100
-4.689651e-01 2.298638e-03 -2.672126e+00 52 20 1
-2.316518e-01 -3.361105e-01 -2.574693e+00 69 10 2
-4.509083e-01 5.550114e-02 -2.697429e+00 56 20 0
-4.039631e-01 2.443083e-01 -2.622160e+00 148 110 73
-5.207142e-01 2.142123e-01 -2.464712e+00 85 38 2
-3.664185e-01 2.729631e-01 -2.628533e+00 98 55 19
-4.561410e-01 2.763202e-01 -2.557937e+00 98 55 19
-5.052730e-01 2.361341e-01 -2.462051e+00 137 109 37
-5.119478e-01 2.369895e-01 -2.456183e+00 137 109 37
-4.994474e-01 2.935317e-01 -2.470476e+00 161 133 97
-4.351597e-01 3.124024e-01 -2.512150e+00 164 144 117
-6.257326e-01 2.064569e-01 -2.224826e+00 141 122 84
-6.046741e-01 2.598608e-01 -2.274795e+00 149 132 118
-6.089854e-01 2.602528e-01 -2.272568e+00 149 132 118
-5.273286e-01 4.224657e-02 -2.048178e+00 87 27 0
-6.470473e-01 2.441523e-01 -2.149998e+00 29 17 14
-6.366453e-01 1.690221e-01 -2.076549e+00 111 31 3
-6.250402e-01 3.077437e-01 -2.201035e+00 133 118 77
-6.422122e-01 2.297829e-01 -2.107328e+00 100 54 5
-4.697144e-01 -9.010350e-02 -2.644274e+00 108 68 31
-4.166949e-01 -1.866895e-01 -2.555003e+00 71 9 0
-4.377886e-01 7.061106e-02 -2.718764e+00 119 85 39
-4.407245e-01 7.149899e-02 -2.715864e+00 119 85 39
-4.494578e-01 8.543850e-02 -2.703195e+00 127 86 40
-5.352956e-01 1.434563e-01 -2.506872e+00 113 63 38
-3.678752e-01 -1.669569e-01 -2.310733e+00 93 26 0
-5.293318e-01 1.539371e-01 -2.492188e+00 89 38 7
-5.610160e-01 1.227012e-01 -2.426658e+00 136 107 69
-4.097846e-01 -1.260642e-01 -2.298589e+00 89 21 0
-3.664196e-01 -1.520205e-01 -2.265726e+00 99 32 3
-5.110981e-01 2.067963e-01 -2.494769e+00 141 93 55
-3.173576e-01 2.757759e-01 -2.679578e+00 144 108 70
-5.331249e-01 2.311618e-01 -2.449514e+00 75 31 2
-4.914531e-01 -3.122440e-02 -2.207010e+00 81 16 1
-5.421746e-01 2.303821e-01 -2.427707e+00 32 12 0
-5.366717e-01 2.468521e-01 -2.444882e+00 90 47 1
-5.414444e-01 2.393134e-01 -2.418159e+00 139 119 62
-4.391895e-01 -6.441246e-02 -2.174477e+00 93 25 0
-4.391895e-01 -6.441246e-02 -2.174477e+00 93 25 0
-5.908035e-01 2.451833e-01 -2.372918e+00 29 10 0
-5.854613e-01 2.044846e-01 -2.326589e+00 36 15 4
-4.692551e-01 -3.704201e-02 -2.163653e+00 82 18 0
-4.821812e-01 2.771933e-01 -2.472089e+00 86 43 5
-6.090648e-01 1.707253e-01 -2.256742e+00 31 9 2
-5.241658e-01 8.696795e-03 -2.130531e+00 87 18 0
-6.123739e-01 1.708126e-01 -2.229123e+00 27 12 1
-5.795340e-01 2.487278e-01 -2.324014e+00 32 13 10
-6.198694e-01 1.473273e-01 -2.188055e+00 34 7 0
1.717081e+00 5.299067e-01 -4.042932e+00 57 55 39
-5.966860e-01 2.774801e-01 -2.289215e+00 154 134 115
-6.290386e-01 1.963187e-01 -2.186050e+00 26 8 5
-5.181423e-01 3.494123e-02 -2.082407e+00 119 54 27
1.625042e+00 5.985754e-01 -3.819143e+00 71 64 48
1.034189e+00 5.407269e-01 -3.444760e+00 71 64 48
-4.730066e-01 3.699492e-04 -2.071841e+00 79 25 1
-5.499509e-01 5.847894e-02 -2.081514e+00 72 13 2
-6.352730e-01 1.824268e-01 -2.147406e+00 26 10 7
-5.616994e-01 9.342043e-02 -2.023983e+00 116 45 25
-5.382173e-01 6.432656e-02 -2.004205e+00 77 25 4
-5.382173e-01 6.432656e-02 -2.004205e+00 77 25 4
-2.230560e-01 5.183540e-01 -1.877222e+00 92 88 103
-4.733149e-01 -1.232504e-01 -2.531703e+00 66 18 0
-5.036881e-01 -4.656278e-02 -2.511418e+00 74 16 0
-4.375295e-01 7.819901e-02 -2.725593e+00 79 38 2
-4.990656e-01 -2.063669e-02 -2.531009e+00 116 60 35
-5.196069e-01 -2.804203e-02 -2.487351e+00 76 20 0
-4.962351e-01 6.442482e-02 -2.603135e+00 128 74 46
-5.432707e-01 5.428043e-02 -2.456337e+00 96 67 51
-5.287854e-01 1.082093e-01 -2.523514e+00 97 55 31
-2.899362e-01 -2.193287e-01 -2.303292e+00 99 40 3
-4.168295e-01 -1.139539e-01 -2.275967e+00 89 19 1
-4.008460e-01 -1.277803e-01 -2.270364e+00 95 21 0
-4.650236e-01 -5.814377e-02 -2.206188e+00 127 60 36
-3.920269e-01 -1.129865e-01 -2.203058e+00 100 29 2
-4.245086e-01 -7.701010e-02 -2.167404e+00 92 26 0
-5.980875e-01 2.414434e-01 -2.360223e+00 44 22 1
-6.194104e-01 1.631884e-01 -2.229719e+00 19 2 0
-6.202809e-01 1.618269e-01 -2.213342e+00 108 99 69
1.336916e+00 5.262875e-01 -3.830149e+00 44 44 34
6.454379e-01 1.144722e+00 -3.646834e+00 30 22 0
-6.433287e-01 2.574697e-01 -2.171538e+00 20 7 0
-6.474104e-01 2.521062e-01 -2.158170e+00 35 20 4
4.334945e-01 1.162251e+00 -3.079018e+00 35 26 0
-4.730585e-01 4.549522e-01 -2.107439e+00 115 30 7
-4.412986e-01 -1.405189e-01 -2.619410e+00 68 21 2
-2.871222e-01 -2.876764e-01 -2.486898e+00 75 63 59
-2.871222e-01 -2.876764e-01 -2.486898e+00 75 63 59
-3.309521e-01 -2.368053e-01 -2.461410e+00 103 84 74
-2.557317e-01 -3.028700e-01 -2.477983e+00 118 102 92
-2.699762e-01 -2.873973e-01 -2.469660e+00 38 20 5
-2.825046e-01 -2.735851e-01 -2.464880e+00 114 97 86
-3.010907e-01 -2.524626e-01 -2.465563e+00 37 24 19
-2.689939e-01 -2.943246e-01 -2.455899e+00 48 35 28
-3.282035e-01 -2.520499e-01 -2.420043e+00 120 108 96
-2.569347e-01 -2.948229e-01 -2.458491e+00 120 108 96
-5.050053e-01 1.178050e-01 -2.606061e+00 109 61 39
-5.388114e-01 4.797080e-03 -2.376206e+00 93 40 7
-5.334312e-01 1.574553e-01 -2.480842e+00 118 72 46
-3.853871e-01 -1.421601e-01 -2.280608e+00 135 65 34
-3.853871e-01 -1.421601e-01 -2.280608e+00 135 65 34
-4.794107e-01 2.031751e-01 -2.550280e+00 130 76 42
-5.244936e-01 2.020564e-01 -2.462041e+00 101 65 6
-5.837594e-01 2.074958e-01 -2.348478e+00 100 81 47
-4.033469e-01 -9.244007e-02 -2.175425e+00 131 66 36
-4.559921e-01 2.887203e-01 -2.488196e+00 109 77 35
-6.177284e-01 1.679243e-01 -2.231617e+00 134 120 77
-6.198446e-01 1.771781e-01 -2.230624e+00 122 113 81
1.506069e+00 5.145287e-01 -3.941620e+00 46 46 33
-6.041812e-01 2.298920e-01 -2.284712e+00 134 117 90
1.360656e+00 5.942803e-01 -3.841780e+00 37 38 30
-4.527349e-01 3.545257e-01 -2.440830e+00 45 33 18
-6.073827e-01 2.790684e-01 -2.257512e+00 27 17 16
-6.397271e-01 2.474291e-01 -2.185999e+00 35 21 11
-6.397418e-01 2.474789e-01 -2.186018e+00 35 21 11
-5.025380e-01 3.868469e-01 -2.294882e+00 146 131 51
-6.691747e-01 2.228746e-01 -2.046030e+00 119 86 58
3.860695e-01 1.142322e+00 -3.083125e+00 111 103 64
-2.881916e-01 3.626213e-01 -1.827318e+00 44 40 57
-4.978147e-01 4.633126e-02 -1.983658e+00 130 76 41
-5.004475e-01 4.070781e-01 -2.245711e+00 148 120 12
-2.649148e-01 4.772314e-01 -2.404484e+00 1 1 1
-4.974343e-01 -8.026727e-02 -2.495849e+00 79 32 16
-6.084459e-01 1.798749e-01 -2.258852e+00 60 44 6
-6.084459e-01 1.798749e-01 -2.258852e+00 60 44 6
-4.800843e-01 8.743413e-02 -2.604385e+00 93 48 6
-6.258693e-02 3.383582e-01 -2.760320e+00 70 53 35
1.265046e-01 4.070595e-01 -2.841365e+00 2 1 0
-5.020129e-01 2.125745e-01 -2.480996e+00 92 39 7
-4.883445e-01 2.885924e-01 -2.441049e+00 48 39 43
-4.872729e-01 2.885492e-01 -2.441933e+00 48 39 43
-4.282596e-01 3.566016e-01 -2.439527e+00 165 138 101
-6.123440e-01 2.250308e-01 -2.248343e+00 39 27 35
-4.862107e-01 -7.545089e-02 -2.493489e+00 45 13 0
-3.061472e-01 1.863157e-01 -2.793854e+00 147 112 48
-4.366681e-01 4.523524e-01 -2.239426e+00 163 96 57
-4.476465e-01 -1.766354e-01 -2.562953e+00 79 21 2
-4.476465e-01 -1.766354e-01 -2.562953e+00 79 21 2
-4.775194e-01 -4.168845e-02 -2.658915e+00 114 76 31
-4.567863e-01 -1.584349e-01 -2.547366e+00 114 60 21
-4.642780e-01 -8.938273e-03 -2.685321e+00 131 95 50
-3.900091e-01 1.342302e-01 -2.746821e+00 128 85 26
-5.488274e-01 2.125085e-02 -2.380988e+00 138 110 74
-5.040911e-01 1.526083e-01 -2.530560e+00 84 29 1
-4.255543e-01 3.008599e-01 -2.512411e+00 58 38 24
-4.216769e-01 3.006653e-01 -2.514967e+00 58 38 24
-3.864937e-01 3.114006e-01 -2.547124e+00 160 143 112
-6.218044e-01 1.679129e-01 -2.205831e+00 31 17 1
-6.491941e-01 1.857242e-01 -2.078165e+00 30 14 11
-4.381767e-01 -7.225995e-02 -2.691984e+00 112 73 37
-4.381767e-01 -7.225995e-02 -2.691984e+00 112 73 37
-4.467358e-01 -2.945666e-02 -2.698635e+00 124 88 41
-4.493611e-01 4.233027e-02 -2.697579e+00 53 19 0
-4.319657e-01 -2.062530e-01 -2.444478e+00 57 5 2
-4.692115e-01 -7.484045e-02 -2.209391e+00 101 35 2
-5.824133e-01 2.172012e-01 -2.335601e+00 32 6 0
-5.930185e-01 2.114981e-01 -2.317199e+00 31 15 1
-5.395340e-01 2.535845e-01 -2.378239e+00 146 125 77
-4.760130e-01 -3.027025e-02 -2.095744e+00 108 44 7
-5.862961e-01 2.587318e-01 -2.284146e+00 151 135 121
-6.616074e-01 2.315136e-01 -2.102391e+00 103 46 1
-5.348564e-01 5.879902e-02 -1.993043e+00 88 30 0
-4.507706e-01 -8.537872e-02 -2.671591e+00 102 66 29
-4.861052e-01 -7.317701e-02 -2.610041e+00 95 53 35
-4.658128e-01 -5.114796e-02 -2.658198e+00 63 18 0
-5.030036e-01 -5.511609e-02 -2.523668e+00 71 18 1
-4.801294e-01 -1.157266e-01 -2.490107e+00 63 16 0
-5.048912e-01 -4.567840e-02 -2.521694e+00 118 61 41
-4.713821e-01 -1.218336e-01 -2.482205e+00 62 16 2
-4.946907e-01 9.662115e-02 -2.580282e+00 130 84 44
-5.717892e-01 3.534196e-02 -2.305455e+00 106 28 0
-4.875126e-01 -5.896356e-02 -2.219194e+00 92 24 0
-5.315241e-01 -3.070011e-03 -2.168775e+00 122 61 27
-5.155449e-01 -1.557479e-02 -2.149027e+00 92 24 0
-6.185117e-01 1.600978e-01 -2.180054e+00 32 6 0
-4.306744e-01 3.487362e-01 -2.445633e+00 72 52 29
-5.710070e-01 5.592309e-02 -2.069423e+00 122 60 27
-5.679272e-01 6.462298e-02 -2.041225e+00 132 66 32
-6.567407e-01 2.580602e-01 -2.155510e+00 147 126 105
-6.523914e-01 2.617831e-01 -2.154891e+00 30 12 8
-4.706643e-01 7.181218e-02 -1.878688e+00 140 98 54
-3.705985e-01 -2.554249e-01 -2.455006e+00 80 18 4
-3.900284e-01 -2.205611e-01 -2.455897e+00 30 20 10
-5.275115e-01 1.930788e-02 -2.492407e+00 47 11 0
-4.014761e-01 -1.934848e-01 -2.355411e+00 90 25 2
-5.541330e-01 2.247945e-02 -2.314276e+00 151 72 42
-5.685086e-01 3.928358e-02 -2.308408e+00 150 74 42
-5.274804e-01 2.438858e-01 -2.416782e+00 134 114 35
-5.236645e-01 -1.237273e-01 -2.808238e+00 172 154 114
-6.207572e-01 2.922378e-01 -2.167889e+00 135 110 6
-5.755825e-01 7.340146e-02 -2.347717e+00 126 41 4
-5.785958e-01 7.465612e-02 -2.345517e+00 126 41 4
-1.187306e+00 3.898525e-01 -1.939931e+00 212 199 165
-3.787391e-01 1.911098e-01 -2.691654e+00 65 38 16
-5.943057e-01 2.066997e-01 -2.317075e+00 142 127 100
-5.646300e-01 2.448721e-01 -2.356481e+00 141 116 33
-5.441554e-01 1.377505e-01 -2.449946e+00 136 113 72
-5.786666e-01 2.543422e-01 -2.326625e+00 40 28 38
-4.172480e-01 1.053906e-01 -2.726211e+00 121 69 20
-6.258147e-01 1.565451e-01 -2.088231e+00 149 110 83
-6.258147e-01 1.565451e-01 -2.088231e+00 149 110 83
-4.378501e-01 3.979798e-02 -2.720295e+00 136 105 51
-5.070024e-01 1.280872e-01 -2.537417e+00 78 26 5
-5.549723e-01 1.113598e-01 -2.435049e+00 63 18 0
-5.334873e-01 1.804744e-01 -2.458166e+00 96 47 3
-4.847276e-01 2.627068e-01 -2.472969e+00 80 28 0
-6.182060e-01 1.867927e-01 -2.245863e+00 30 12 2
-6.189704e-01 1.873259e-01 -2.245633e+00 30 12 2
-6.359690e-01 1.817482e-01 -2.102591e+00 140 120 93
-4.541350e-01 -3.688641e-03 -2.685914e+00 55 22 4
-5.015278e-01 -5.661037e-02 -2.529536e+00 65 14 0
-5.015278e-01 -5.661037e-02 -2.529536e+00 65 14 0
-5.230729e-01 -2.788937e-02 -2.470859e+00 56 15 2
-5.167312e-01 9.527592e-02 -2.518026e+00 67 22 0
-5.566202e-01 5.261282e-02 -2.423062e+00 69 23 0
-3.520614e-01 1.899759e-01 -2.738935e+00 78 35 3
-5.091839e-01 1.712050e-01 -2.513548e+00 82 26 0
-5.329564e-01 1.810798e-01 -2.457941e+00 98 51 5
-3.091110e-01 2.603685e-01 -2.716416e+00 97 57 16
-4.510733e-01 2.494778e-01 -2.540790e+00 165 123 82
-5.341420e-01 2.285810e-01 -2.433088e+00 24 9 0
-3.527082e-01 2.952940e-01 -2.603472e+00 109 65 27
-5.963656e-01 1.928582e-01 -2.312625e+00 29 3 0
-6.208023e-01 1.736565e-01 -2.224567e+00 25 11 2
-6.180654e-01 1.515272e-01 -2.199550e+00 31 9 3
-4.364559e-01 3.492378e-01 -2.442035e+00 38 20 2
-4.441955e-01 3.561493e-01 -2.429755e+00 168 142 93
-4.613853e-01 1.575415e-02 -2.682822e+00 50 19 2
-4.376488e-01 6.563797e-02 -2.708675e+00 63 23 1
-4.333627e-01 8.195929e-02 -2.707468e+00 56 15 0
-4.331733e-01 9.152631e-02 -2.714019e+00 140 92 51
-4.814094e-01 -9.630577e-02 -2.476568e+00 114 75 49
-4.881766e-01 8.070536e-02 -2.609609e+00 85 29 2
-4.830590e-01 8.931424e-02 -2.613195e+00 135 87 51
-5.078029e-01 1.319345e-01 -2.539801e+00 77 28 1
-4.715039e-01 1.925212e-01 -2.559230e+00 92 35 4
-5.404146e-01 1.632105e-01 -2.455966e+00 82 36 5
-4.506448e-01 2.220260e-01 -2.571513e+00 79 24 2
-5.301198e-01 2.155399e-01 -2.455590e+00 83 37 3
-3.073576e-01 2.658535e-01 -2.695427e+00 103 57 22
-4.064762e-01 2.675534e-01 -2.576895e+00 88 45 3
-5.547072e-01 2.352081e-01 -2.397344e+00 158 141 87
-5.542863e-01 2.363998e-01 -2.389205e+00 36 16 3
-3.844731e-01 3.040261e-01 -2.558363e+00 79 44 8
-3.844731e-01 3.040261e-01 -2.558363e+00 79 44 8
-4.452231e-01 2.873249e-01 -2.495032e+00 89 55 17
-5.442416e-01 2.699428e-01 -2.383577e+00 25 10 7
-6.194725e-01 1.634038e-01 -2.229017e+00 25 5 1
-5.862500e-01 2.488155e-01 -2.318755e+00 30 11 7
-6.107394e-01 2.243995e-01 -2.257626e+00 27 13 8
-6.228816e-01 2.199140e-01 -2.239578e+00 30 14 6
-6.318680e-01 2.104575e-01 -2.212467e+00 29 10 2
-6.312655e-01 2.103776e-01 -2.212747e+00 29 10 2
-6.344799e-01 1.971473e-01 -2.194896e+00 147 121 87
-6.319530e-01 2.025701e-01 -2.197136e+00 32 13 12
-6.365180e-01 1.933501e-01 -2.172623e+00 26 12 3
-6.354902e-01 1.870304e-01 -2.159502e+00 27 9 3
-5.928127e-01 2.973776e-01 -2.273332e+00 27 10 3
-6.470763e-01 2.578767e-01 -2.171243e+00 23 3 2
-6.524513e-01 2.460058e-01 -2.149528e+00 25 7 2
-6.287012e-01 3.073820e-01 -2.208647e+00 23 5 2
-6.335510e-01 3.018966e-01 -2.196827e+00 27 15 4
-6.335781e-01 3.013441e-01 -2.197430e+00 27 15 4
-6.352714e-01 1.798962e-01 -2.080619e+00 32 12 6
-6.549942e-01 2.116025e-01 -2.052340e+00 79 24 8
-5.176829e-01 -1.159838e-02 -2.514418e+00 128 68 42
-3.110311e-01 1.480241e-01 -2.838129e+00 99 53 8
-4.497267e-01 1.303271e-01 -2.643798e+00 87 50 32
-5.245129e-01 1.294992e-01 -2.532085e+00 107 60 39
-5.245129e-01 1.294992e-01 -2.532085e+00 107 60 39
-4.501816e-01 1.575174e-01 -2.621659e+00 120 70 47
-4.467331e-01 1.566860e-01 -2.624439e+00 120 70 47
-3.351541e-01 1.951237e-01 -2.756142e+00 133 101 43
-5.600036e-01 4.505478e-02 -2.377752e+00 135 95 59
-5.020957e-01 1.557435e-01 -2.533422e+00 88 32 1
-4.238850e-01 2.045410e-01 -2.612877e+00 99 41 12
-4.417101e-01 2.135317e-01 -2.587372e+00 150 91 61
-4.959880e-01 2.091420e-01 -2.510205e+00 97 44 5
-4.887177e-01 2.121172e-01 -2.518630e+00 128 71 34
-5.326771e-01 2.041134e-01 -2.460156e+00 136 89 50
-5.326379e-01 2.115727e-01 -2.449741e+00 141 115 21
-2.465053e-01 2.799099e-01 -2.750656e+00 145 102 57
-4.775147e-01 2.427941e-01 -2.507652e+00 119 73 50
-3.688357e-01 2.769753e-01 -2.602132e+00 99 61 16
-3.684233e-01 2.819285e-01 -2.605418e+00 167 128 85
-3.642865e-01 2.810374e-01 -2.609846e+00 167 128 85
-5.052310e-01 2.521316e-01 -2.456871e+00 152 121 33
-3.911725e-01 2.843390e-01 -2.576185e+00 160 120 81
-4.588237e-01 2.694033e-01 -2.506804e+00 93 42 15
-3.832044e-01 2.887802e-01 -2.585099e+00 105 64 22
-5.491995e-01 2.422990e-01 -2.391260e+00 145 122 21
-5.977196e-01 2.073778e-01 -2.312150e+00 148 136 106
-5.914772e-01 2.180934e-01 -2.325310e+00 42 16 5
-5.914772e-01 2.180934e-01 -2.325310e+00 42 16 5
-5.961857e-01 1.727919e-01 -2.283137e+00 116 94 12
-3.712440e-01 3.089846e-01 -2.569976e+00 182 156 126
-4.392436e-01 2.971259e-01 -2.503181e+00 49 26 9
-6.161817e-01 1.918884e-01 -2.254905e+00 41 19 3
-6.161817e-01 1.918884e-01 -2.254905e+00 41 19 3
-6.203282e-01 1.671038e-01 -2.223681e+00 126 114 66
-6.259997e-01 1.888920e-01 -2.236583e+00 37 14 3
-6.217521e-01 1.716289e-01 -2.222997e+00 38 21 7
-6.217521e-01 1.716289e-01 -2.222997e+00 38 21 7
-5.978136e-01 2.792900e-01 -2.294834e+00 52 36 27
-5.464129e-01 3.097082e-01 -2.346034e+00 166 151 137
-5.425045e-01 3.094552e-01 -2.348119e+00 166 151 137
-3.911020e-01 3.576396e-01 -2.480683e+00 52 33 21
-6.022464e-01 2.772074e-01 -2.265003e+00 151 136 114
-6.392637e-01 2.451094e-01 -2.191039e+00 150 133 120
-6.402708e-01 2.665005e-01 -2.180979e+00 150 132 115
-6.298121e-01 2.960806e-01 -2.196344e+00 152 137 112
-6.357057e-01 1.695525e-01 -2.077314e+00 106 35 6
-2.279277e-01 7.045420e-01 -2.000245e+00 215 199 166
-4.902301e-01 3.644034e-01 -2.271961e+00 48 32 12
-5.844213e-01 3.202125e-01 -2.257482e+00 144 118 43
-5.515236e-01 1.717589e-01 -1.837127e+00 49 45 46
-5.468925e-01 2.089260e-01 -2.427550e+00 139 116 6
-4.534514e-01 2.900449e-01 -2.491381e+00 109 71 30
-4.534514e-01 2.900449e-01 -2.491381e+00 109 71 30
-5.423490e-01 2.558613e-01 -2.389512e+00 142 116 28
-4.612393e-01 4.625750e-01 -2.202727e+00 156 93 52
-5.371986e-01 2.757949e-01 -2.389457e+00 35 27 30
-5.591106e-01 2.652294e-01 -2.357089e+00 34 25 31
-5.104760e-01 1.581780e-01 -2.547563e+00 73 26 4
-6.005834e-01 1.876008e-01 -2.282310e+00 137 111 13
-6.582329e-01 2.207179e-01 -2.110595e+00 145 120 88
-6.582329e-01 2.207179e-01 -2.110595e+00 145 120 88
-4.661626e-01 4.533330e-01 -2.226292e+00 162 89 51
-4.144317e-01 2.940226e-01 -2.533509e+00 162 128 100
-6.190557e-01 1.749542e-01 -2.251125e+00 25 7 3
-6.211842e-01 1.496232e-01 -2.186707e+00 35 9 2
-6.495137e-01 2.233766e-01 -2.138431e+00 143 122 96
-6.495137e-01 2.233766e-01 -2.138431e+00 143 122 96
-4.481337e-01 3.707449e-01 -1.873015e+00 22 18 41
-4.697841e-01 -1.988390e-02 -2.678311e+00 126 92 44
-4.462301e-01 1.925028e-01 -2.583640e+00 146 93 54
-4.052312e-01 2.260742e-01 -2.637308e+00 141 90 62
-4.052312e-01 2.260742e-01 -2.637308e+00 141 90 62
-3.016922e-01 2.717942e-01 -2.727820e+00 166 120 68
-3.397882e-01 2.873287e-01 -2.640523e+00 98 43 12
-5.823061e-01 2.092216e-01 -2.354294e+00 29 5 0
-5.984062e-01 1.997468e-01 -2.321553e+00 28 4 0
-3.875383e-01 3.674411e-01 -2.479167e+00 166 142 118
-6.481733e-01 2.020951e-01 -2.177704e+00 25 4 1
-3.028254e-01 3.831999e-01 -2.524825e+00 26 3 1
-6.314040e-01 2.774167e-01 -2.184303e+00 31 13 5
-4.643295e-01 -1.311915e-01 -2.581314e+00 78 29 0
-5.138624e-01 -2.445609e-02 -2.480923e+00 114 64 39
-3.679321e-01 -2.452003e-01 -2.480438e+00 84 21 4
-3.679321e-01 -2.452003e-01 -2.480438e+00 84 21 4
-5.236752e-01 1.405202e-01 -2.506125e+00 83 26 3
-5.176794e-01 1.612677e-01 -2.488670e+00 79 25 3
-4.470880e-01 2.485708e-01 -2.534247e+00 68 24 2
-5.143447e-01 2.467872e-01 -2.458815e+00 87 38 4
-3.119232e-01 3.042244e-01 -2.668300e+00 95 48 7
-4.504260e-01 3.062577e-01 -2.500749e+00 38 18 9
-2.456369e-01 3.371692e-01 -2.663728e+00 118 71 27
-6.175836e-01 1.573025e-01 -2.191489e+00 127 117 70
-5.568671e-01 3.174192e-01 -2.318220e+00 155 137 115
-1.922133e-01 3.637338e-01 -1.968998e+00 27 28 40
-4.420607e-01 1.388537e-01 -2.698195e+00 121 70 24
-5.015027e-01 1.045575e-01 -2.585226e+00 141 94 51
-5.397305e-01 3.468235e-02 -2.444856e+00 68 22 2
-4.974080e-01 1.272670e-01 -2.554314e+00 123 74 43
-4.974080e-01 1.272670e-01 -2.554314e+00 123 74 43
-3.986516e-01 1.925458e-01 -2.702570e+00 117 71 31
-5.601777e-01 3.966754e-02 -2.369089e+00 103 34 0
-4.507106e-01 2.057010e-01 -2.587034e+00 121 66 30
-4.992238e-01 2.288772e-01 -2.475117e+00 83 36 2
-4.001766e-01 2.678849e-01 -2.590375e+00 156 106 69
-4.348068e-01 2.831920e-01 -2.520275e+00 101 49 12
-4.793806e-01 2.749125e-01 -2.471172e+00 88 33 8
-5.986562e-01 1.987956e-01 -2.291783e+00 130 112 84
-5.986562e-01 1.987956e-01 -2.291783e+00 130 112 84
-6.105758e-01 1.864323e-01 -2.251718e+00 36 11 0
-6.043214e-01 2.182964e-01 -2.202965e+00 125 106 81
-6.345185e-01 1.843495e-01 -2.108121e+00 37 28 23
-4.684259e-01 4.590731e-01 -2.079959e+00 80 73 78
-4.510126e-01 4.681626e-01 -2.082692e+00 56 53 60
-4.813794e-01 5.646029e-01 -1.962832e+00 67 58 64
-1.721324e+00 -3.398456e-01 -1.556617e+00 177 161 125
-1.728965e+00 -3.349157e-01 -1.560043e+00 173 155 119
1.123731e-02 1.891569e-01 -1.904891e+00 11 12 16
-4.327473e-01 4.702995e-02 -2.716065e+00 48 20 2
1.233026e-01 -3.683199e-01 -2.162962e+00 14 35 0
-3.816858e-01 6.573330e-02 -2.776400e+00 71 36 4
-4.232421e-01 6.143879e-02 -2.723252e+00 58 26 2
-3.915570e-01 1.982445e-01 -2.613355e+00 80 36 7
-6.096908e-01 1.436364e-01 -2.192367e+00 28 4 1
-6.319855e-01 1.865846e-01 -2.161608e+00 21 8 2
-5.942070e-01 3.142433e-01 -2.318071e+00 138 129 117
-3.811388e-01 2.284026e-01 -2.693608e+00 83 50 15
1.073017e-01 -4.429054e-01 -2.185341e+00 22 42 17
-4.223940e-01 -3.212191e-02 -2.725224e+00 105 76 36
-6.050081e-01 1.700795e-01 -2.259178e+00 31 14 0
-1.795254e-01 -2.595084e-01 -2.132043e+00 77 87 56
4.411146e-01 1.192847e+00 -3.130663e+00 196 184 133
1.287401e+00 -2.062623e-01 -3.132798e+00 101 89 58
-3.855467e-01 2.782694e-01 -2.593135e+00 134 97 53
-4.813562e-01 2.733402e-01 -2.459811e+00 152 131 77
-4.813562e-01 2.733402e-01 -2.459811e+00 152 131 77
-5.744596e-01 2.416951e-01 -2.321804e+00 149 129 98
-7.051273e-01 3.105780e-01 -1.904614e+00 77 75 88
-4.968617e-01 2.230895e-01 -2.477802e+00 81 36 1
-5.822680e-01 2.082941e-01 -2.334331e+00 143 119 59
-6.146320e-01 1.841906e-01 -2.258888e+00 137 113 45
-5.489494e-01 2.542692e-01 -2.372578e+00 147 126 76
-4.557787e-01 1.954563e-01 -2.574306e+00 142 91 51
-3.867120e-01 2.205343e-01 -2.655259e+00 125 80 51
-5.300145e-01 2.371022e-01 -2.425868e+00 141 124 55
-5.882157e-01 1.900658e-01 -2.318306e+00 47 19 2
-5.639067e-01 2.255278e-01 -2.364912e+00 34 15 0
-5.901966e-01 2.042757e-01 -2.317392e+00 107 90 60
-6.172264e-01 1.721166e-01 -2.227657e+00 28 9 3
-6.213239e-01 1.821284e-01 -2.231958e+00 25 0 0
-6.356850e-01 1.631798e-01 -2.184571e+00 105 89 51
-6.315051e-01 1.577328e-01 -2.175262e+00 105 81 46
-5.266693e-01 2.262223e-01 -2.438850e+00 52 30 0
-5.682231e-01 1.990985e-01 -2.360946e+00 130 109 29
-5.682231e-01 1.990985e-01 -2.360946e+00 130 109 29
-5.648447e-01 2.034959e-01 -2.366493e+00 50 25 1
-5.932079e-01 1.712942e-01 -2.305191e+00 140 113 21
-6.041635e-01 2.060042e-01 -2.293083e+00 60 36 3
-5.957118e-01 2.103503e-01 -2.299856e+00 141 114 49
-6.085936e-01 2.050512e-01 -2.284752e+00 138 113 54
-6.201128e-01 1.633505e-01 -2.230237e+00 32 9 0
-6.138605e-01 1.810540e-01 -2.242989e+00 134 111 67
-6.198011e-01 1.768075e-01 -2.231803e+00 119 105 82
-6.253267e-01 1.674384e-01 -2.214938e+00 22 4 0
-6.406996e-01 2.484748e-01 -2.186455e+00 38 22 22
-4.535107e-01 8.668904e-02 -2.677694e+00 111 68 45
-4.535107e-01 8.668904e-02 -2.677694e+00 111 68 45
-5.402790e-01 2.777436e-02 -2.447766e+00 120 72 53
-5.402790e-01 2.777436e-02 -2.447766e+00 120 72 53
-4.437457e-01 1.394685e-01 -2.646067e+00 101 59 36
-4.437457e-01 1.394685e-01 -2.646067e+00 101 59 36
-5.742981e-01 2.188731e-01 -2.353196e+00 52 38 8
-6.102298e-01 1.698540e-01 -2.265058e+00 130 102 23
-5.973198e-01 2.641783e-01 -2.279233e+00 26 13 8
-6.559549e-01 2.319858e-01 -2.135688e+00 34 19 22
5.885712e-01 9.688932e-01 -2.852314e+00 144 137 111
-4.754891e-01 4.601274e-01 -2.101761e+00 194 146 106
-3.591029e-01 1.619243e-01 -2.746295e+00 69 23 0
-5.527239e-01 2.419516e-01 -2.399355e+00 32 11 3
-5.527239e-01 2.419516e-01 -2.399355e+00 32 11 3
-3.770721e-01 4.923859e-01 -1.886986e+00 90 87 104
-3.358830e-01 1.678193e-01 -2.758610e+00 73 28 4
-2.448991e-01 2.745584e-01 -2.746428e+00 98 56 13
-4.910625e-01 4.596859e-01 -2.104604e+00 125 37 10
-2.757383e-01 4.220347e-01 -1.972366e+00 99 93 104
-3.441386e-01 1.372983e-01 -2.778181e+00 73 29 0
-2.952462e-01 2.605059e-01 -2.715036e+00 151 106 72
-2.952462e-01 2.605059e-01 -2.715036e+00 151 106 72
2.901873e-01 4.310838e-01 -1.998840e+00 143 135 141
-6.352628e-01 2.179192e-01 -2.129904e+00 30 28 33
-4.882654e-01 5.496223e-01 -1.977940e+00 77 73 90
-6.162860e-01 2.571540e-01 -2.142108e+00 131 98 1
-2.288079e-01 1.212985e-01 -1.676106e+00 180 164 131
-4.635444e-01 3.333488e-02 -2.695951e+00 120 86 23
-3.758354e-01 2.405878e-01 -2.643359e+00 133 99 55
-3.588463e-01 1.916819e-01 -2.732876e+00 76 32 0
-5.867124e-01 2.937814e-01 -2.285029e+00 161 137 110
-4.384372e-01 7.094701e-02 -2.718138e+00 132 95 33
-5.453619e-01 2.333551e-01 -2.403343e+00 150 137 81
-4.680334e-01 2.904198e-01 -2.479031e+00 92 53 11
-3.188148e-01 -2.939696e-01 -1.127784e+00 0 255 0
-3.055983e-01 -2.858874e-01 -1.175323e+00 255 255 0
-4.704189e-01 -7.900244e-02 -1.193147e+00 255 0 0
-4.575121e-01 -7.819176e-02 -1.241446e+00 255 255 0
-2.854173e-01 -3.273841e-01 -1.124110e+00 0 255 0
-2.720113e-01 -3.200853e-01 -1.171723e+00 255 255 0
-2.838150e-01 -3.239582e-01 -1.120330e+00 255 0 0
-2.704368e-01 -3.162702e-01 -1.167889e+00 255 255 0
-2.799662e-01 -3.217099e-01 -1.116567e+00 0 255 0
-2.666233e-01 -3.136758e-01 -1.164079e+00 255 255 0
-2.896416e-01 -3.127162e-01 -1.121389e+00 255 0 0
-2.763204e-01 -3.047719e-01 -1.168923e+00 255 255 0
-3.041201e-01 -3.036296e-01 -1.124759e+00 0 255 0
-2.908391e-01 -2.956359e-01 -1.172295e+00 255 255 0
-3.323604e-01 -2.891241e-01 -1.131170e+00 255 0 0
-3.191911e-01 -2.809874e-01 -1.178713e+00 255 255 0
-3.471623e-01 -2.867786e-01 -1.134977e+00 0 255 0
-3.340750e-01 -2.786041e-01 -1.182537e+00 255 255 0
-3.521045e-01 -2.763352e-01 -1.137454e+00 255 0 0
-3.389862e-01 -2.681946e-01 -1.185011e+00 255 255 0
-3.605896e-01 -2.412692e-01 -1.135131e+00 0 255 0
-3.474217e-01 -2.332676e-01 -1.182698e+00 255 255 0
-3.777277e-01 -2.163469e-01 -1.145996e+00 255 0 0
-3.644607e-01 -2.087200e-01 -1.193596e+00 255 255 0
-4.351965e-01 -1.236931e-01 -1.202726e+00 0 255 0
-4.229484e-01 -1.220115e-01 -1.251174e+00 255 255 0
-3.992775e-01 -1.632105e-01 -1.170490e+00 255 0 0
-3.861111e-01 -1.567722e-01 -1.218294e+00 255 255 0
-5.127019e-01 -1.345188e-02 -1.159376e+00 0 255 0
-4.995172e-01 -1.303072e-02 -1.207605e+00 255 255 0
-4.172033e-01 -1.467686e-01 -1.187847e+00 255 0 0
-4.047074e-01 -1.424562e-01 -1.236068e+00 255 255 0
-6.305078e-01 -2.389588e-01 -1.096944e+00 0 255 0
-6.154861e-01 -2.416560e-01 -1.144558e+00 255 255 0
-6.549638e-01 -2.215364e-01 -1.010523e+00 255 0 0
-6.465032e-01 -2.357799e-01 -1.057699e+00 255 255 0
-6.763239e-01 -2.177980e-01 -9.830751e-01 0 255 0
-6.688365e-01 -2.339271e-01 -1.029806e+00 255 255 0
-6.142796e-01 -2.338551e-01 -1.106113e+00 255 0 0
-5.993474e-01 -2.348213e-01 -1.153822e+00 255 255 0
-6.468500e-01 -2.345554e-01 -1.082970e+00 0 255 0
-6.327410e-01 -2.394281e-01 -1.130690e+00 255 255 0
-6.664125e-01 -2.266681e-01 -1.039238e+00 255 0 0
-6.555798e-01 -2.365058e-01 -1.087049e+00 255 255 0
-5.542262e-01 -6.003891e-02 -1.131140e+00 0 255 0
-5.408791e-01 -6.041459e-02 -1.179325e+00 255 255 0
-5.835959e-01 -1.297090e-01 -1.115677e+00 255 0 0
-5.698255e-01 -1.320464e-01 -1.163687e+00 255 255 0
-7.469087e-01 -2.497868e-01 -1.159382e+00 0 255 0
-7.285131e-01 -2.612724e-01 -1.204434e+00 255 255 0
-6.902474e-01 -1.955544e-01 -1.128421e+00 255 0 0
-6.738018e-01 -2.075498e-01 -1.174090e+00 255 255 0
-8.636793e-01 -2.793846e-01 -1.185343e+00 0 255 0
-8.429161e-01 -2.887012e-01 -1.229864e+00 255 255 0
-9.116643e-01 -2.800408e-01 -1.203076e+00 255 0 0
-8.896682e-01 -2.892301e-01 -1.247028e+00 255 255 0
-9.302158e-01 -2.924942e-01 -1.218921e+00 0 255 0
-9.066148e-01 -3.007841e-01 -1.262214e+00 255 255 0
-9.186140e-01 -2.789857e-01 -1.234792e+00 255 0 0
-8.928178e-01 -2.873465e-01 -1.276800e+00 255 255 0
-9.140190e-01 -2.787764e-01 -1.239219e+00 0 255 0
-8.865908e-01 -2.879134e-01 -1.280014e+00 255 255 0
-9.611417e-01 -2.772757e-01 -1.237393e+00 255 0 0
-9.328402e-01 -2.886532e-01 -1.277010e+00 255 255 0
-9.237327e-01 -2.811798e-01 -1.238710e+00 0 255 0
-8.957627e-01 -2.916268e-01 -1.278816e+00 255 255 0
-1.183107e+00 -1.836976e-01 -1.439561e+00 255 0 0
-1.147957e+00 -1.869154e-01 -1.474974e+00 255 255 0
-8.033840e-01 -2.510135e-01 -1.176899e+00 0 255 0
-7.834983e-01 -2.610106e-01 -1.221671e+00 255 255 0
-1.042097e+00 -2.565063e-01 -1.266827e+00 255 0 0
-1.013528e+00 -2.680644e-01 -1.306199e+00 255 255 0
-1.241675e+00 -1.653576e-01 -1.484817e+00 0 255 0
-1.205543e+00 -1.682103e-01 -1.519262e+00 255 255 0
-1.303232e+00 -1.422430e-01 -1.541410e+00 255 0 0
-1.266727e+00 -1.450565e-01 -1.575462e+00 255 255 0
-1.137777e+00 -2.108536e-01 -1.399985e+00 0 255 0
-1.104353e+00 -2.163632e-01 -1.436761e+00 255 255 0
-1.358392e+00 -1.278226e-01 -1.601834e+00 255 0 0
-1.321722e+00 -1.312217e-01 -1.635653e+00 255 255 0
-1.444929e+00 -9.787973e-02 -1.675116e+00 0 255 0
-1.408022e+00 -1.046828e-01 -1.708156e+00 255 255 0
-1.470583e+00 -8.221703e-02 -1.684993e+00 255 0 0
-1.433493e+00 -9.170113e-02 -1.717154e+00 255 255 0
-1.480363e+00 -5.334147e-02 -1.698067e+00 0 255 0
-1.442632e+00 -6.444022e-02 -1.728940e+00 255 255 0
-1.496399e+00 1.226825e-03 -1.738176e+00 255 0 0
-1.458294e+00 -1.023316e-02 -1.768452e+00 255 255 0
-1.413074e+00 -1.202167e-01 -1.645441e+00 0 255 0
-1.376505e+00 -1.250848e-01 -1.679190e+00 255 255 0
-1.485235e+00 3.516278e-02 -1.751486e+00 255 0 0
-1.446789e+00 2.261723e-02 -1.780889e+00 255 255 0
-1.485074e+00 6.110633e-02 -1.776620e+00 0 255 0
-1.446478e+00 4.777420e-02 -1.805475e+00 255 255 0
-1.750938e+00 -3.826483e-01 -1.544282e+00 255 0 0
-1.731763e+00 -3.636408e-01 -1.586365e+00 255 255 0
-1.747026e+00 -3.833718e-01 -1.541731e+00 0 255 0
-1.728518e+00 -3.677473e-01 -1.585473e+00 255 255 0
-1.734598e+00 -3.149546e-01 -1.582035e+00 255 0 0
-1.714033e+00 -2.996162e-01 -1.624951e+00 255 255 0
-1.733767e+00 -3.821431e-01 -1.545957e+00 0 255 0
-1.714614e+00 -3.665420e-01 -1.589429e+00 255 255 0
-1.739883e+00 -2.719236e-01 -1.625869e+00 255 0 0
-1.717919e+00 -2.560062e-01 -1.667871e+00 255 255 0
-1.748653e+00 -3.826693e-01 -1.542233e+00 0 255 0
-1.729867e+00 -3.662553e-01 -1.585566e+00 255 255 0
