ply
format ascii 1.0
element face 0
property list uchar int vertex_indices
element vertex 939
property float x
property float y
property float z
property uchar diffuse_red
property uchar diffuse_green
property uchar diffuse_blue
end_header
-4.186476e-02 -7.824485e-02 -1.706922e+00 204 186 149
-4.186476e-02 -7.824485e-02 -1.706922e+00 204 186 149
-3.670113e-01 2.269588e-01 -2.143758e+00 147 60 16
5.410779e-01 -6.648872e-01 -1.750815e+00 12 13 7
-2.777631e-01 1.649356e-01 -1.902651e+00 19 19 28
-2.480001e-01 3.159784e-01 -1.999261e+00 25 24 30
-1.415256e-01 -7.030672e-01 -1.845121e+00 45 136 31
-1.599692e-01 -6.533454e-01 -1.822971e+00 42 141 33
4.469222e-01 -4.469288e-01 -1.785889e+00 22 32 10
4.790055e-01 -6.336967e-01 -1.639799e+00 107 96 70
5.706386e-01 -5.190604e-01 -1.741435e+00 40 44 27
1.498812e+00 -6.524635e-01 -1.432381e+00 204 190 144
1.898532e-01 -5.872808e-01 -1.776682e+00 18 34 10
5.205886e-01 -6.272085e-01 -1.721751e+00 87 79 60
4.730830e-01 -5.959525e-01 -1.742798e+00 83 78 57
3.053777e-01 -4.140730e-01 -1.868908e+00 98 90 67
-3.687266e-01 -7.923474e-01 -1.878094e+00 69 56 5
5.632861e-01 -7.055675e-01 -1.593873e+00 97 91 67
4.318528e-01 -5.519089e-01 -1.758140e+00 35 36 17
5.001931e-01 -5.360809e-01 -1.752530e+00 46 58 25
6.802100e-01 -4.943203e-01 -1.734532e+00 44 45 23
6.310526e-01 -4.632579e-01 -1.754890e+00 30 93 5
6.069315e-01 -4.625281e-01 -1.751981e+00 30 93 5
8.915649e-01 -4.490755e-01 -1.785778e+00 37 29 5
7.522231e-01 -4.326310e-01 -1.700614e+00 86 81 59
8.907266e-01 -4.538883e-01 -1.670077e+00 108 103 74
-4.030021e-01 -3.241151e-01 -2.012932e+00 99 37 0
3.111085e-01 -5.392921e-01 -1.860962e+00 64 64 52
-3.609609e-01 -1.963921e-01 -1.921897e+00 103 59 2
-3.609609e-01 -1.963921e-01 -1.921897e+00 103 59 2
-3.691973e-01 -1.704372e-01 -1.901140e+00 103 62 1
5.735099e-01 -4.746199e-01 -1.756295e+00 30 95 13
5.624347e-01 -3.580249e-01 -1.829278e+00 90 85 66
-3.700368e-01 -1.170294e-01 -1.869771e+00 94 48 0
-1.664945e-01 -6.473682e-01 -1.841778e+00 40 99 22
-5.087652e-01 -1.957368e-01 -2.309824e+00 139 119 111
-5.087652e-01 -1.957368e-01 -2.309824e+00 139 119 111
5.289456e-01 -6.627127e-01 -1.751125e+00 13 12 7
-4.447751e-01 -7.432751e-01 -1.879046e+00 48 40 17
-4.192870e-01 3.365028e-01 -2.055989e+00 198 180 142
2.581248e-02 -6.876752e-01 -1.904296e+00 173 158 119
1.815157e+00 -4.585953e-01 -1.739648e+00 45 42 30
-1.477245e-01 -2.243849e-02 -1.715289e+00 198 180 142
-3.894015e-01 -1.013957e-01 -2.503573e+00 116 72 33
6.532590e-01 -5.202862e-01 -1.731344e+00 42 44 30
-1.706232e-01 5.852074e-02 -1.685749e+00 31 28 38
-9.457066e-02 -6.447019e-01 -1.867951e+00 185 170 135
-4.731834e-01 -1.500385e-01 -2.353464e+00 54 29 25
-7.771392e-02 -6.070518e-01 -1.852314e+00 119 106 75
1.490290e-01 -5.876977e-01 -1.775511e+00 23 27 14
5.164646e-01 -7.116881e-01 -1.558902e+00 106 97 66
9.298429e-01 -4.785006e-01 -1.724500e+00 43 41 28
4.293551e-01 -8.579838e-01 -1.609044e+00 213 196 148
-3.629085e-01 3.505368e-01 -2.073111e+00 200 188 142
3.290656e-01 -7.878635e-01 -1.593719e+00 214 197 145
5.843611e-01 -7.191751e-01 -1.574378e+00 110 100 72
6.631689e-01 -6.029243e-01 -1.743434e+00 113 103 75
6.631689e-01 -6.029243e-01 -1.743434e+00 113 103 75
-4.097488e-01 -3.237520e-01 -2.061882e+00 103 39 0
4.161754e-01 -5.254743e-01 -1.802340e+00 11 39 1
5.836153e-01 -6.478999e-01 -1.679776e+00 104 98 70
5.160097e-01 -5.073830e-01 -1.780864e+00 183 207 143
1.053874e+00 -5.991682e-01 -1.645902e+00 95 89 65
-3.598899e-01 -1.237058e-01 -1.875070e+00 144 95 27
-3.942718e-01 -1.031163e-01 -1.852202e+00 97 39 1
-3.275629e-01 -4.480594e-01 -2.147485e+00 175 106 58
-3.019364e-01 -4.218192e-01 -2.085710e+00 114 46 0
-2.950085e-01 -4.233595e-01 -2.090201e+00 114 46 0
-1.680886e-02 -6.147681e-01 -1.857790e+00 106 93 67
-3.193622e-01 -3.387691e-01 -2.044733e+00 100 36 0
-4.416136e-01 -2.663374e-01 -2.063761e+00 114 17 3
-4.343075e-01 -2.052735e-01 -1.952312e+00 106 57 0
-3.832997e-01 -1.967980e-01 -1.954328e+00 106 50 1
4.388292e-01 -5.266097e-01 -1.774697e+00 25 100 9
6.260699e-01 -6.159970e-01 -1.718106e+00 107 101 76
6.260699e-01 -6.159970e-01 -1.718106e+00 107 101 76
5.088677e-01 -5.285487e-01 -1.761020e+00 137 180 107
8.219393e-01 -4.964672e-01 -1.734914e+00 61 48 27
1.190142e+00 -4.200240e-01 -1.889862e+00 89 84 64
-4.138078e-01 -1.030724e-01 -1.884089e+00 104 55 1
-3.498374e-02 -6.064270e-01 -1.835750e+00 97 117 64
-1.099952e-01 -6.768624e-01 -2.087670e+00 208 188 151
5.411458e-02 -1.319779e-01 -1.694593e+00 195 177 139
8.207095e-02 -1.336028e-01 -1.694543e+00 195 177 139
-1.728233e-01 6.524832e-04 -2.663975e+00 194 173 132
-6.518903e-01 -5.756966e-01 -1.816993e+00 49 138 35
-3.333900e-01 -6.688574e-01 -1.831404e+00 40 126 27
-5.451216e-01 -6.489080e-01 -1.864914e+00 152 146 104
-1.477909e-01 -6.396847e-01 -1.849826e+00 12 39 2
-6.339692e-02 -6.277384e-01 -1.845219e+00 11 41 1
-7.505371e-02 2.650757e-01 -1.811884e+00 18 19 39
-7.948658e-02 2.659482e-01 -1.809618e+00 18 19 39
-7.287151e-02 -6.280648e-01 -1.827776e+00 186 207 148
-1.581436e-01 -1.698036e-02 -1.730082e+00 197 178 137
-3.589953e-01 -3.225116e-01 -2.310050e+00 103 6 0
-3.589953e-01 -3.225116e-01 -2.310050e+00 103 6 0
-1.366635e-01 -6.449769e-01 -1.815325e+00 163 195 124
-4.050801e-01 -2.842259e-01 -2.086814e+00 105 12 2
-4.094928e-01 -1.541688e-01 -2.274041e+00 140 47 19
-3.856059e-01 -2.465393e-01 -2.142741e+00 144 50 20
-4.595970e-01 -1.806266e-01 -2.168070e+00 140 47 15
-4.105438e-01 -2.322738e-01 -2.043065e+00 110 15 11
-4.556713e-01 -1.046349e-01 -2.155315e+00 145 46 20
-4.556713e-01 -1.046349e-01 -2.155315e+00 145 46 20
-4.384719e-01 -1.857834e-01 -2.045838e+00 101 11 4
-4.394086e-01 -1.860400e-01 -2.046024e+00 101 11 4
-4.350453e-01 -1.759666e-01 -2.052077e+00 145 46 14
-4.312180e-01 -1.543157e-01 -2.084455e+00 145 46 14
-4.312180e-01 -1.543157e-01 -2.084455e+00 145 46 14
-4.751075e-01 -1.035885e-01 -2.086808e+00 93 13 4
-4.755714e-01 -1.031805e-01 -2.086037e+00 93 13 4
-4.085997e-01 -2.044921e-01 -1.964463e+00 114 64 9
-4.684333e-01 -9.268958e-02 -2.093445e+00 140 40 14
-4.684333e-01 -9.268958e-02 -2.093445e+00 140 40 14
-4.228339e-01 -1.682206e-01 -1.995321e+00 95 12 5
-4.365203e-01 -1.680210e-01 -1.992475e+00 95 12 5
3.979756e-01 -5.300183e-01 -1.789788e+00 182 203 145
-4.574632e-01 -1.874828e-02 -2.183420e+00 143 54 17
5.537367e-01 -7.026890e-01 -1.592990e+00 99 89 62
-5.021172e-01 -9.052999e-02 -2.063861e+00 142 43 11
-4.709438e-01 -9.058209e-02 -2.072336e+00 142 43 11
-4.240353e-01 -1.595726e-01 -1.979768e+00 103 12 6
6.526718e-01 -4.465134e-01 -1.947536e+00 102 95 68
-3.249524e-01 -2.164140e-01 -1.929045e+00 104 55 0
-4.590078e-01 -2.744427e-02 -2.125950e+00 92 12 2
5.780301e-01 -5.062282e-01 -1.792860e+00 13 44 2
-4.636825e-01 -9.752913e-02 -2.019810e+00 84 14 4
5.876168e-01 -5.196138e-01 -1.757392e+00 155 180 115
-3.209834e-01 -2.052455e-01 -1.909571e+00 112 71 5
7.933761e-01 -6.019912e-01 -1.698208e+00 77 74 55
-4.007903e-01 -1.706410e-01 -1.925292e+00 127 72 12
7.451917e-01 -4.597080e-01 -1.808347e+00 29 28 8
-4.076956e-01 -1.453583e-01 -1.904077e+00 113 56 3
-4.870052e-01 -2.532735e-02 -2.007551e+00 78 8 2
-4.360098e-01 -1.151745e-01 -1.888710e+00 99 44 4
-3.753216e-01 -1.283102e-01 -1.880194e+00 101 50 7
-5.102743e-01 5.768421e-02 -2.080086e+00 91 17 11
-3.508118e-01 -1.237749e-01 -1.875939e+00 148 100 28
-5.360514e-01 3.004346e-02 -2.032950e+00 89 11 1
-5.115626e-01 8.337260e-02 -2.100158e+00 90 19 2
-5.115626e-01 8.337260e-02 -2.100158e+00 90 19 2
-5.357932e-01 -6.901331e-03 -1.970291e+00 127 41 13
-5.084122e-01 -1.510097e-02 -1.956135e+00 73 8 2
-5.084122e-01 -1.510097e-02 -1.956135e+00 73 8 2
-4.910734e-01 9.263685e-02 -2.059860e+00 63 14 2
-4.910734e-01 9.263685e-02 -2.059860e+00 63 14 2
-4.370598e-01 -6.552244e-02 -1.837186e+00 155 81 47
-2.750969e-01 -2.413251e-02 -1.743316e+00 158 97 51
-4.291604e-01 3.186927e-01 -2.047755e+00 196 179 132
-2.557295e-01 6.672269e-02 -1.672259e+00 40 24 8
-2.898394e-01 -6.541241e-01 -1.838104e+00 43 128 37
-3.275516e-01 -3.832752e-01 -2.280122e+00 114 18 0
-3.210326e-01 -2.928078e-01 -2.440864e+00 101 11 0
-2.881500e-01 -6.429235e-01 -1.844392e+00 26 79 4
-2.620364e-01 -4.735982e-01 -2.137203e+00 177 108 57
-3.304935e-01 -4.180428e-01 -2.155996e+00 104 43 0
-3.226882e-01 -4.183727e-01 -2.130629e+00 152 87 23
-3.010957e-01 -4.028633e-01 -2.138807e+00 148 85 24
-3.615437e-01 -3.872012e-01 -2.117425e+00 148 85 24
-3.061133e-01 -3.903827e-01 -2.136116e+00 99 38 0
-3.438031e-01 -3.870719e-01 -2.104861e+00 104 43 0
-3.398269e-01 -3.915437e-01 -2.091004e+00 102 40 2
-2.751434e-01 -4.084119e-01 -2.112120e+00 102 40 2
-3.004206e-01 -3.865820e-01 -2.125005e+00 148 85 22
-4.119666e-01 -1.171096e-01 -2.467850e+00 88 37 4
-1.037158e-01 -6.289646e-01 -1.841944e+00 85 110 51
-3.906698e-01 -2.160080e-01 -2.294552e+00 106 11 0
-3.150337e-01 -3.646297e-01 -2.087091e+00 97 34 2
-4.063550e-01 -1.382085e-01 -2.301903e+00 93 18 1
-4.063550e-01 -1.382085e-01 -2.301903e+00 93 18 1
-3.434629e-01 -3.179978e-01 -2.057617e+00 150 88 21
-1.429167e-02 -6.014516e-01 -1.809217e+00 19 83 4
-2.986385e-01 -3.460934e-01 -2.032598e+00 96 27 0
-4.260039e-01 -2.398144e-01 -2.117360e+00 96 9 1
-3.475782e-01 -3.045504e-01 -2.059856e+00 90 28 1
-4.143929e-01 -2.691710e-01 -2.072552e+00 100 10 1
4.334763e-02 -6.252097e-01 -1.792960e+00 17 23 3
-4.236982e-01 -1.814692e-01 -2.194763e+00 84 2 0
-3.865318e-01 -2.653417e-01 -2.086385e+00 152 55 24
-4.320348e-01 -1.979485e-01 -2.157349e+00 136 46 19
-4.683897e-01 -1.943832e-01 -2.142075e+00 136 46 19
-4.098634e-01 -1.140589e-01 -2.295647e+00 95 12 1
-4.476669e-01 -1.681989e-01 -2.184585e+00 141 55 26
-4.152598e-01 -1.499779e-01 -2.222689e+00 136 48 17
-4.181601e-01 -1.495265e-01 -2.221168e+00 136 48 17
-3.473699e-01 -2.897135e-01 -2.048247e+00 94 29 0
-4.072201e-01 -2.105327e-01 -2.125876e+00 145 51 21
-4.091647e-01 -9.253926e-02 -2.300070e+00 142 54 23
-4.145601e-01 -1.935426e-01 -2.143826e+00 145 47 19
-4.145601e-01 -1.935426e-01 -2.143826e+00 145 47 19
-4.127560e-01 -1.168860e-01 -2.256438e+00 141 51 24
-4.127560e-01 -1.168860e-01 -2.256438e+00 141 51 24
-4.065006e-01 -1.521670e-01 -2.199218e+00 137 50 27
-4.065006e-01 -1.521670e-01 -2.199218e+00 137 50 27
-4.720859e-01 -1.378852e-01 -2.181124e+00 140 48 25
7.059473e-02 -5.837867e-01 -1.801528e+00 25 84 5
-4.424229e-01 -1.965273e-01 -2.099280e+00 140 49 23
-4.208872e-01 -1.133879e-01 -2.231177e+00 132 48 23
-4.208872e-01 -1.133879e-01 -2.231177e+00 132 48 23
-4.290673e-01 -1.305435e-01 -2.198045e+00 89 17 3
-4.290673e-01 -1.305435e-01 -2.198045e+00 89 17 3
-4.426376e-01 -8.443931e-02 -2.257144e+00 103 13 7
-4.442260e-01 -8.500675e-02 -2.256359e+00 103 13 7
-4.207652e-01 -1.477906e-01 -2.170293e+00 136 49 21
-4.399807e-01 -9.666064e-02 -2.236307e+00 138 52 24
-4.075504e-01 -1.944402e-01 -2.090297e+00 141 47 20
-4.075504e-01 -1.944402e-01 -2.090297e+00 141 47 20
-4.077576e-01 -2.118890e-01 -2.045375e+00 152 54 27
-4.368898e-01 -1.340951e-01 -2.140507e+00 88 3 0
-4.398836e-01 -1.558550e-01 -2.099852e+00 140 47 16
-4.398836e-01 -1.558550e-01 -2.099852e+00 140 47 16
-4.450577e-01 -1.440104e-01 -2.101036e+00 96 18 1
5.774689e-01 -5.982868e-01 -1.894423e+00 62 62 50
-4.499244e-01 -1.394918e-01 -2.091508e+00 141 49 22
-4.489601e-01 -1.490049e-01 -2.065567e+00 89 2 0
-4.506359e-01 -1.487261e-01 -2.064959e+00 89 2 0
-4.549213e-01 -1.312169e-01 -2.087091e+00 91 15 0
-4.549213e-01 -1.312169e-01 -2.087091e+00 91 15 0
-4.277925e-01 -4.277587e-02 -2.222388e+00 137 50 22
-4.640441e-01 -4.438855e-02 -2.203784e+00 137 50 22
-4.195390e-01 -1.864896e-01 -2.013383e+00 146 52 22
-4.570264e-01 -1.236473e-01 -2.067502e+00 76 0 0
-4.582171e-01 -3.193132e-02 -2.184003e+00 98 9 1
-4.557505e-01 -3.475471e-02 -2.175635e+00 140 51 18
-4.597345e-01 -3.451166e-02 -2.173708e+00 140 51 18
-4.731797e-01 -7.310503e-02 -2.108592e+00 136 48 17
-4.733084e-01 -7.313296e-02 -2.108436e+00 136 48 17
-4.662085e-01 -1.147998e-01 -2.051170e+00 89 5 0
-4.651670e-01 -1.148399e-01 -2.051650e+00 89 5 0
-4.623605e-01 -4.784673e-02 -2.137255e+00 133 45 21
-4.537762e-01 -1.156175e-01 -2.045155e+00 137 48 17
-4.530571e-01 -1.156261e-01 -2.045377e+00 137 48 17
-4.849237e-01 -3.990962e-02 -2.136163e+00 135 45 19
-3.453792e-01 -2.052411e-01 -1.948690e+00 100 48 1
-4.769489e-01 -9.811890e-02 -2.047137e+00 93 1 0
-4.769489e-01 -9.811890e-02 -2.047137e+00 93 1 0
-4.779553e-01 -9.281489e-02 -2.051889e+00 143 45 18
-4.779553e-01 -9.281489e-02 -2.051889e+00 143 45 18
-3.910099e-01 -1.880451e-01 -1.947609e+00 149 101 25
7.574770e-01 -5.023073e-01 -1.873466e+00 107 99 76
-3.689933e-01 -1.882098e-01 -1.938362e+00 100 58 0
-4.906818e-01 -5.996293e-03 -2.143398e+00 134 47 17
-3.088586e-01 -2.127748e-01 -1.918872e+00 156 110 33
-3.826227e-01 -1.929574e-01 -1.920435e+00 109 62 8
-4.915317e-01 -1.468626e-02 -2.124942e+00 84 6 0
-3.992552e-01 -1.796860e-01 -1.927153e+00 150 97 32
-4.863027e-01 -8.096033e-02 -2.032660e+00 89 9 7
-3.350061e-01 -1.985610e-01 -1.920039e+00 96 51 0
-3.411672e-01 -1.983979e-01 -1.919713e+00 96 51 0
-4.803142e-01 2.420657e-02 -2.170785e+00 137 53 17
-3.540431e-01 -1.947845e-01 -1.910016e+00 152 107 39
-5.001932e-01 -1.118271e-02 -2.098873e+00 89 13 0
-4.943587e-01 -5.411200e-02 -2.039173e+00 86 10 0
-4.943587e-01 -5.411200e-02 -2.039173e+00 86 10 0
-4.885262e-01 1.193882e-03 -2.104676e+00 129 48 22
-3.641237e-01 -1.780534e-01 -1.902524e+00 152 105 33
-4.925440e-01 -5.179464e-02 -2.031649e+00 136 50 23
6.808439e-01 -4.931427e-01 -1.755996e+00 26 89 10
-4.934820e-01 -3.285497e-02 -2.051873e+00 137 45 17
-4.880685e-01 -3.263316e-02 -2.052853e+00 137 45 17
-4.571997e-01 2.904907e-02 -2.137592e+00 132 49 21
-4.571997e-01 2.904907e-02 -2.137592e+00 132 49 21
8.023223e-01 -4.799972e-01 -1.791322e+00 91 100 57
-4.073758e-01 -1.556605e-01 -1.903345e+00 143 94 30
-4.073758e-01 -1.556605e-01 -1.903345e+00 143 94 30
-5.024745e-01 2.144105e-02 -2.108073e+00 86 5 0
-3.375561e-01 -1.769683e-01 -1.892754e+00 102 63 0
-4.712825e-01 -9.259388e-02 -1.956494e+00 92 11 7
-4.712825e-01 -9.259388e-02 -1.956494e+00 92 11 7
-4.980937e-01 3.813758e-02 -2.113839e+00 127 46 17
-4.971928e-01 -6.592293e-03 -2.056281e+00 133 45 18
-4.971928e-01 -6.592293e-03 -2.056281e+00 133 45 18
-5.108252e-01 -3.215086e-02 -2.017217e+00 82 9 0
-5.108252e-01 -3.215086e-02 -2.017217e+00 82 9 0
-4.884610e-01 -6.659219e-03 -2.047810e+00 89 11 0
-4.920828e-01 -6.978108e-03 -2.046881e+00 89 11 0
-4.711946e-01 -7.491400e-02 -1.954672e+00 141 47 16
-4.711946e-01 -7.491400e-02 -1.954672e+00 141 47 16
-4.955623e-01 -4.739608e-02 -1.981859e+00 139 47 22
-5.048132e-01 4.857393e-02 -2.100530e+00 133 48 20
-4.945823e-01 5.964645e-02 -2.114905e+00 128 49 21
-5.034319e-01 -2.659059e-02 -2.003160e+00 76 5 1
-5.040992e-01 -2.017285e-02 -2.007745e+00 140 47 21
-3.996682e-01 -1.372712e-01 -1.874808e+00 143 93 25
-4.537257e-01 -8.986164e-02 -1.915787e+00 98 7 1
-4.542149e-01 -8.975318e-02 -1.915836e+00 98 7 1
-4.883659e-01 -5.723902e-02 -1.948622e+00 144 49 24
-4.834009e-01 -5.763831e-02 -1.949984e+00 144 49 24
-5.045396e-01 7.100239e-02 -2.101164e+00 136 50 21
-5.045396e-01 7.100239e-02 -2.101164e+00 136 50 21
-4.168921e-01 -1.118315e-01 -1.884654e+00 145 97 25
-4.288652e-01 -1.157922e-01 -1.875625e+00 148 97 28
-4.718858e-01 3.306871e-02 -2.046429e+00 138 51 22
-5.023823e-01 1.449648e-02 -2.016702e+00 141 53 29
-5.240684e-01 4.398160e-02 -2.048787e+00 88 18 5
-4.354616e-01 -1.032486e-01 -1.880222e+00 90 44 2
-5.026954e-01 8.173082e-02 -2.092587e+00 136 53 28
-5.026954e-01 8.173082e-02 -2.092587e+00 136 53 28
-4.284591e-01 -6.737676e-02 -1.917384e+00 137 44 19
-5.268531e-01 2.471841e-02 -2.011609e+00 90 11 9
-4.916660e-01 2.929390e-02 -2.020446e+00 90 11 9
-4.012793e-01 -1.252798e-01 -1.845445e+00 108 67 6
-5.213682e-01 5.158255e-03 -1.985006e+00 130 44 16
-5.070973e-01 -3.813235e-02 -1.931457e+00 81 8 0
-4.876714e-01 -6.295412e-02 -1.902715e+00 76 7 0
-5.024149e-01 -2.522864e-02 -1.945516e+00 92 10 4
-4.353387e-01 -8.888817e-02 -1.870013e+00 83 29 0
-4.353387e-01 -8.888817e-02 -1.870013e+00 83 29 0
-4.790546e-01 -5.534058e-02 -1.903735e+00 136 50 24
-4.901334e-01 4.413351e-02 -2.018203e+00 62 5 0
-4.839542e-01 4.455849e-02 -2.020582e+00 62 5 0
-5.178183e-01 7.747456e-03 -1.969614e+00 132 46 22
-5.269039e-01 1.991564e-02 -1.980662e+00 129 46 15
-4.992048e-01 3.700519e-02 -2.000316e+00 132 45 19
-4.596000e-01 -8.384415e-02 -1.860962e+00 144 86 20
-5.260590e-01 6.204846e-02 -2.023990e+00 65 3 2
-5.331558e-01 6.237381e-02 -2.026173e+00 65 3 2
-5.331558e-01 6.237381e-02 -2.026173e+00 65 3 2
-4.268970e-01 -8.948275e-02 -1.856791e+00 157 101 33
-5.032493e-01 7.944297e-02 -2.043429e+00 68 2 0
-5.364991e-01 9.932233e-02 -2.064060e+00 134 52 27
-5.471940e-01 8.951759e-02 -2.046277e+00 66 13 0
-5.438015e-01 8.033361e-02 -2.031650e+00 131 49 20
-5.334872e-01 1.040096e-01 -2.060056e+00 68 12 0
-5.334872e-01 1.040096e-01 -2.060056e+00 68 12 0
-4.792044e-01 -5.172547e-02 -1.878898e+00 92 10 0
-5.395121e-01 4.171345e-02 -1.982037e+00 134 45 16
-5.235682e-01 1.134322e-01 -2.060710e+00 135 50 21
-4.353514e-01 -5.751807e-02 -1.848889e+00 164 83 46
-4.335039e-01 -7.356055e-02 -1.827820e+00 163 85 46
-4.098018e-01 -7.334847e-02 -1.830167e+00 163 85 46
-5.289375e-01 1.030075e-01 -2.025315e+00 81 1 0
-2.841517e-01 -1.050777e-01 -1.798111e+00 176 108 71
-5.512130e-01 1.000222e-01 -2.003220e+00 152 77 40
-5.512130e-01 1.000222e-01 -2.003220e+00 152 77 40
-2.244507e-01 -2.220442e-02 -1.777372e+00 213 116 76
-4.387306e-01 -3.742832e-01 -2.316698e+00 176 87 53
-3.067882e-01 -4.096356e-01 -2.392613e+00 176 87 53
-4.493780e-01 -3.838779e-01 -2.274106e+00 147 68 34
-4.441838e-01 -3.647932e-01 -2.303417e+00 98 16 0
-3.393209e-01 -3.831003e-01 -2.358891e+00 134 55 28
-3.300340e-01 -3.267908e-01 -2.427630e+00 98 12 1
-3.229781e-01 -3.289412e-01 -2.432128e+00 98 12 1
-3.378333e-01 -3.161552e-01 -2.434708e+00 103 18 4
-4.380209e-01 -2.865421e-01 -2.378199e+00 100 5 0
-3.471725e-01 -3.028987e-01 -2.440282e+00 100 5 0
-3.485967e-01 -3.486661e-01 -2.350077e+00 104 14 9
-3.375928e-01 -3.220576e-01 -2.395926e+00 102 12 0
-3.471174e-01 -3.230241e-01 -2.353215e+00 104 9 0
-3.471695e-01 -3.454266e-01 -2.289327e+00 108 13 0
-4.580029e-01 -2.364571e-01 -2.375544e+00 77 11 0
-4.580029e-01 -2.364571e-01 -2.375544e+00 77 11 0
-4.195837e-01 -2.296566e-01 -2.410816e+00 80 8 0
-4.359602e-01 -2.289822e-01 -2.399178e+00 80 8 0
-3.483993e-01 -2.655290e-01 -2.390644e+00 110 18 0
-3.987866e-01 -2.093685e-01 -2.445244e+00 68 4 2
-3.914608e-01 -2.105749e-01 -2.441455e+00 140 67 45
-3.618035e-01 -3.128301e-01 -2.281221e+00 104 12 0
-4.780785e-01 -2.062290e-01 -2.353038e+00 41 25 30
-3.465178e-01 -2.516066e-01 -2.369250e+00 103 15 2
-3.412507e-01 -2.528504e-01 -2.372507e+00 103 15 2
-3.672484e-01 -2.379462e-01 -2.368547e+00 105 13 4
-3.170036e-01 -4.152606e-01 -2.103090e+00 103 42 0
-3.201585e-01 -4.148504e-01 -2.100908e+00 103 42 0
-3.303462e-01 -3.995057e-01 -2.115353e+00 142 82 22
-3.422026e-01 -3.368403e-01 -2.193076e+00 111 15 0
-3.422026e-01 -3.368403e-01 -2.193076e+00 111 15 0
-2.567924e-01 -1.317745e-01 -2.599487e+00 95 46 3
-4.011631e-01 -1.914876e-01 -2.386653e+00 28 11 4
-3.888032e-01 -1.809776e-01 -2.394876e+00 154 135 129
-3.556111e-01 -1.836250e-01 -2.415118e+00 154 135 129
-4.655672e-01 -1.850139e-01 -2.326157e+00 32 10 9
-3.602049e-01 -2.219542e-01 -2.336812e+00 92 10 0
-3.800025e-01 -1.110547e-01 -2.490524e+00 137 91 53
-3.872807e-01 -2.074772e-01 -2.320317e+00 141 54 22
-4.211748e-01 -8.376691e-02 -2.455844e+00 92 50 15
-3.908151e-01 -2.511111e-01 -2.151974e+00 94 11 0
-3.908151e-01 -2.511111e-01 -2.151974e+00 94 11 0
-4.104876e-01 -1.968052e-01 -2.212266e+00 81 1 0
-4.103226e-01 -2.067049e-01 -2.194953e+00 93 2 0
-3.959411e-01 -2.084047e-01 -2.192390e+00 134 48 17
-4.155783e-01 -1.873132e-01 -2.207163e+00 138 50 22
-4.155783e-01 -1.873132e-01 -2.207163e+00 138 50 22
-4.112231e-01 -1.531243e-01 -2.259382e+00 90 4 1
-4.060556e-01 -2.282099e-01 -2.145826e+00 93 15 1
-4.060556e-01 -2.282099e-01 -2.145826e+00 93 15 1
-3.850176e-01 -2.670207e-01 -2.095686e+00 99 7 0
-4.129630e-01 -1.686138e-01 -2.228599e+00 139 58 31
-4.531299e-01 -1.651410e-01 -2.209352e+00 139 58 31
-4.117109e-01 -1.939064e-01 -2.186498e+00 89 2 0
-4.082158e-01 -1.595026e-01 -2.241465e+00 136 52 27
-4.017563e-01 -2.407729e-01 -2.114564e+00 143 52 24
-4.112771e-01 -1.234137e-01 -2.287693e+00 148 56 28
-4.112771e-01 -1.234137e-01 -2.287693e+00 148 56 28
-4.163672e-01 -1.360646e-01 -2.260638e+00 136 50 24
-4.116294e-01 -1.368613e-01 -2.262999e+00 136 50 24
-4.167506e-01 -9.936223e-02 -2.304505e+00 87 12 0
-4.167506e-01 -9.936223e-02 -2.304505e+00 87 12 0
-3.691159e-01 -2.623275e-01 -2.077187e+00 100 3 0
-4.124743e-01 -2.223042e-01 -2.109315e+00 147 51 27
-4.154888e-01 -1.159573e-01 -2.264212e+00 95 17 0
-3.917230e-01 -2.433335e-01 -2.083753e+00 142 52 24
-4.315774e-01 -1.464514e-01 -2.204906e+00 75 5 5
-3.551880e-01 -2.565683e-01 -2.081565e+00 145 54 21
-4.233381e-01 -1.397206e-01 -2.215000e+00 80 0 0
-3.756774e-01 -7.327371e-02 -2.336729e+00 142 56 30
-4.095094e-01 -1.075727e-01 -2.265762e+00 142 55 28
-4.095094e-01 -1.075727e-01 -2.265762e+00 142 55 28
-4.343023e-01 -2.124979e-01 -2.094414e+00 88 4 0
-4.342934e-01 -1.724991e-01 -2.147496e+00 103 13 4
-4.117001e-01 -6.801209e-02 -2.309350e+00 96 12 0
-4.071931e-01 -2.261686e-01 -2.072586e+00 142 47 21
-4.071931e-01 -2.261686e-01 -2.072586e+00 142 47 21
-4.465559e-01 -7.313128e-02 -2.266258e+00 96 8 2
-4.227440e-01 -1.864867e-01 -2.108413e+00 95 11 2
-4.332365e-01 -1.620718e-01 -2.134107e+00 87 3 0
-4.353323e-01 -1.617070e-01 -2.133204e+00 87 3 0
-4.332365e-01 -1.620718e-01 -2.134107e+00 87 3 0
-4.302964e-01 -1.454418e-01 -2.156858e+00 87 14 0
-4.323400e-01 -1.450326e-01 -2.156157e+00 87 14 0
-4.410837e-01 -1.351207e-01 -2.161387e+00 90 3 1
-4.155678e-01 -2.134869e-01 -2.057976e+00 145 49 22
-4.306024e-01 -9.345087e-02 -2.220804e+00 136 50 27
-4.108072e-01 -6.777344e-02 -2.267485e+00 93 7 0
-4.300819e-01 -5.170811e-02 -2.278379e+00 139 55 26
-4.364875e-01 -8.922048e-02 -2.209824e+00 89 6 2
-4.236795e-01 -1.810453e-01 -2.074425e+00 142 53 24
-4.906234e-01 -7.592510e-02 -2.185621e+00 136 50 23
-4.906234e-01 -7.592510e-02 -2.185621e+00 136 50 23
-4.357021e-01 -1.923963e-01 -2.038923e+00 154 56 29
-4.280093e-01 -1.811113e-01 -2.057864e+00 153 59 31
-4.280093e-01 -1.811113e-01 -2.057864e+00 153 59 31
-4.279668e-01 -1.772104e-01 -2.063495e+00 91 2 0
-4.416878e-01 -1.502211e-01 -2.090604e+00 91 2 1
-4.646606e-01 -1.204916e-01 -2.118857e+00 147 52 25
-4.548982e-01 -1.160998e-01 -2.128049e+00 87 0 0
-4.241802e-01 -3.945242e-02 -2.247183e+00 137 51 22
-4.241802e-01 -3.945242e-02 -2.247183e+00 137 51 22
-4.593741e-01 -1.023591e-01 -2.140797e+00 82 2 0
-4.453653e-01 -8.557625e-02 -2.153148e+00 142 52 27
-4.558773e-01 -1.104027e-01 -2.109483e+00 90 3 0
-4.294293e-01 -1.673066e-01 -2.036414e+00 141 51 21
-4.206110e-01 -2.727105e-02 -2.240088e+00 135 54 27
-4.257512e-01 -1.610755e-01 -2.046752e+00 149 55 31
-4.255588e-01 -1.611297e-01 -2.046758e+00 149 55 31
-4.609955e-01 -9.367756e-02 -2.126503e+00 103 11 10
-4.571176e-01 -6.513405e-02 -2.166763e+00 141 58 31
-4.571176e-01 -6.513405e-02 -2.166763e+00 141 58 31
-4.690483e-01 -8.051905e-02 -2.136122e+00 90 4 0
-4.505477e-01 -2.914978e-02 -2.211502e+00 85 17 0
-4.505477e-01 -2.914978e-02 -2.211502e+00 85 17 0
-4.346625e-01 -1.757789e-01 -2.007486e+00 94 8 1
-4.346625e-01 -1.757789e-01 -2.007486e+00 94 8 1
-4.642740e-01 -1.068251e-01 -2.087121e+00 89 3 1
-4.655165e-01 -1.066430e-01 -2.086687e+00 89 3 1
-4.536027e-01 -3.798754e-02 -2.181659e+00 146 60 34
-4.480203e-01 -2.577441e-03 -2.230548e+00 95 10 2
-4.480203e-01 -2.577441e-03 -2.230548e+00 95 10 2
-4.489055e-01 -1.535884e-01 -2.021596e+00 144 55 30
-4.516474e-01 -1.139353e-01 -2.072944e+00 141 54 28
-1.999692e-01 -2.695938e-01 -1.946513e+00 158 106 34
-4.654587e-01 -5.651004e-02 -2.137746e+00 84 1 1
-4.484659e-01 -1.449434e-01 -2.021373e+00 79 2 0
-4.628468e-01 -1.235539e-01 -2.045103e+00 88 2 0
-4.484442e-01 -8.255764e-03 -2.208620e+00 86 12 1
-4.484442e-01 -8.255764e-03 -2.208620e+00 86 12 1
-3.886668e-01 -2.005996e-01 -1.963239e+00 147 94 25
-4.729597e-01 -1.051037e-01 -2.063178e+00 87 2 0
-4.177703e-01 -1.719222e-01 -1.986878e+00 96 6 0
-4.696200e-01 -9.499532e-03 -2.178523e+00 84 2 0
-4.732251e-01 -4.912467e-02 -2.121726e+00 88 0 0
-4.589289e-01 -1.276809e-01 -2.016059e+00 98 7 11
-4.589289e-01 -1.276809e-01 -2.016059e+00 98 7 11
-4.358843e-01 -1.550328e-01 -1.985746e+00 153 57 28
-4.596414e-01 -1.229978e-01 -2.021110e+00 148 53 18
-4.596414e-01 -1.229978e-01 -2.021110e+00 148 53 18
-4.758984e-01 -1.015026e-01 -2.041443e+00 144 50 25
-4.758984e-01 -1.015026e-01 -2.041443e+00 144 50 25
-4.577269e-01 1.912319e-02 -2.195164e+00 137 52 24
-4.577269e-01 1.912319e-02 -2.195164e+00 137 52 24
-4.909431e-01 -3.639835e-02 -2.106125e+00 144 54 27
5.387872e-01 -5.345895e-01 -1.761068e+00 123 161 90
-4.891818e-01 -3.134896e-02 -2.111755e+00 84 0 0
-4.817238e-01 -1.948200e-02 -2.124141e+00 140 54 27
-3.950759e-01 -1.753896e-01 -1.940081e+00 147 95 27
-4.690982e-01 2.860276e-02 -2.185968e+00 89 6 1
-4.690982e-01 2.860276e-02 -2.185968e+00 89 6 1
-4.846836e-01 -4.676857e-02 -2.071419e+00 77 4 0
-4.563056e-01 -1.255055e-01 -1.974189e+00 142 48 22
-4.563056e-01 -1.255055e-01 -1.974189e+00 142 48 22
-4.787894e-01 -9.536539e-02 -2.007973e+00 137 49 24
-4.680322e-01 -8.076389e-02 -2.027957e+00 135 44 20
-4.680322e-01 -8.076389e-02 -2.027957e+00 135 44 20
-4.927289e-01 -3.997971e-02 -2.075253e+00 80 8 0
-4.871371e-01 2.222356e-02 -2.158810e+00 100 13 2
-4.819132e-01 -3.289299e-02 -2.076754e+00 136 49 25
-4.498179e-01 -1.260420e-01 -1.949524e+00 140 50 26
-4.726646e-01 3.688548e-02 -2.151027e+00 93 12 0
-4.859042e-01 3.484987e-02 -2.142517e+00 93 12 0
-4.837516e-01 3.094396e-02 -2.111978e+00 129 49 19
-4.636183e-01 -9.654214e-02 -1.947319e+00 85 2 0
-4.967773e-01 1.680983e-03 -2.063851e+00 134 50 22
-5.030337e-01 2.406589e-02 -2.091055e+00 70 0 0
-5.017665e-01 9.815752e-03 -2.069430e+00 132 48 23
-5.017665e-01 9.815752e-03 -2.069430e+00 132 48 23
-4.561817e-01 -9.662569e-02 -1.942375e+00 136 51 23
-4.544928e-01 -9.688743e-02 -1.942613e+00 136 51 23
-4.637631e-01 -1.031973e-01 -1.931682e+00 141 51 26
-4.637631e-01 -1.031973e-01 -1.931682e+00 141 51 26
-4.659090e-01 -9.074933e-02 -1.948176e+00 144 52 23
-4.659090e-01 -9.074933e-02 -1.948176e+00 144 52 23
-5.081423e-01 4.287757e-03 -2.054624e+00 86 11 1
-5.010636e-01 1.817006e-02 -2.072082e+00 103 14 0
-5.099172e-01 1.522336e-02 -2.062659e+00 138 52 26
-5.099172e-01 1.522336e-02 -2.062659e+00 138 52 26
-4.610976e-01 -8.503313e-02 -1.945308e+00 84 5 1
-4.600697e-01 -8.516424e-02 -1.945510e+00 84 5 1
-4.965487e-01 1.187486e-02 -2.054656e+00 137 50 23
-4.978957e-01 7.014988e-02 -2.126875e+00 77 2 1
-4.995431e-01 4.292932e-02 -2.089984e+00 79 14 0
-4.995431e-01 4.292932e-02 -2.089984e+00 79 14 0
-5.052616e-01 -5.792701e-02 -1.959219e+00 140 48 24
-5.052616e-01 -5.792701e-02 -1.959219e+00 140 48 24
-4.959271e-01 6.869230e-02 -2.119734e+00 129 54 24
-5.090497e-01 3.527513e-03 -2.034152e+00 85 0 2
-4.792499e-01 3.480524e-02 -2.077906e+00 130 51 23
-4.779850e-01 3.468061e-02 -2.077746e+00 130 51 23
-5.120665e-01 1.535447e-02 -2.042631e+00 86 7 1
-4.796774e-01 -6.855600e-02 -1.941515e+00 85 5 1
-5.029917e-01 -3.767285e-02 -1.972600e+00 80 0 3
-4.872193e-01 -4.889769e-02 -1.959864e+00 85 1 0
-4.976035e-01 -3.187945e-02 -1.977386e+00 139 54 29
-4.974719e-01 -3.170689e-02 -1.977366e+00 139 54 29
-5.190091e-01 -2.308981e-02 -1.985096e+00 136 49 28
-5.044863e-01 5.472947e-02 -2.080159e+00 88 7 4
-5.223597e-01 2.683926e-02 -2.043164e+00 135 49 26
-5.223597e-01 2.683926e-02 -2.043164e+00 135 49 26
-5.118807e-01 4.992788e-02 -2.071556e+00 138 52 23
-4.739297e-01 -7.990276e-02 -1.916150e+00 140 46 20
-5.026288e-01 7.860698e-02 -2.107824e+00 130 52 22
-5.026288e-01 7.860698e-02 -2.107824e+00 130 52 22
-5.125643e-01 4.347620e-02 -2.059826e+00 134 55 25
-5.095919e-01 2.309527e-02 -2.031485e+00 88 4 0
-5.187615e-01 6.968027e-02 -2.087428e+00 90 10 4
-4.782541e-01 -6.132563e-02 -1.929284e+00 87 3 0
-3.895975e-01 -1.266042e-01 -1.861364e+00 152 104 30
-3.893663e-01 -1.167179e-01 -1.867420e+00 86 44 1
-4.981799e-01 6.213807e-02 -2.067341e+00 137 54 26
-4.981799e-01 6.213807e-02 -2.067341e+00 137 54 26
-5.195973e-01 5.501118e-02 -2.055089e+00 88 1 0
-4.975153e-01 -2.041067e-02 -1.962612e+00 135 44 21
-5.122521e-01 5.485754e-02 -2.050884e+00 135 48 20
-4.760174e-01 -5.359490e-02 -1.916427e+00 142 61 33
-5.231007e-01 -3.537063e-03 -1.965782e+00 63 6 0
-5.027621e-01 -3.708805e-02 -1.922270e+00 134 44 19
-5.042210e-01 -3.699498e-02 -1.921905e+00 134 44 19
-4.327514e-01 -9.184587e-02 -1.863052e+00 79 19 0
-5.346884e-01 2.614191e-02 -1.985618e+00 137 55 33
-5.212383e-01 7.005511e-02 -2.034946e+00 141 51 32
-5.212383e-01 7.005511e-02 -2.034946e+00 141 51 32
-5.095789e-01 5.779605e-02 -2.016128e+00 129 59 36
-5.013827e-01 -2.917185e-02 -1.914177e+00 136 52 29
-5.245572e-01 3.394073e-03 -1.944958e+00 132 45 19
-4.527491e-01 1.818652e-01 -2.162016e+00 73 53 34
-4.196710e-01 1.905382e-01 -2.177402e+00 73 53 34
-4.361323e-01 -7.065391e-02 -1.859910e+00 165 85 47
-5.431762e-01 7.618931e-02 -2.019413e+00 85 4 1
-5.357161e-01 2.512848e-02 -1.956830e+00 83 0 0
-2.564422e-01 -1.162435e-01 -1.808446e+00 176 120 61
-4.495410e-01 1.961497e-01 -2.150136e+00 171 154 123
-5.482102e-01 6.862633e-02 -1.984063e+00 161 87 48
-5.604770e-01 1.102125e-01 -2.024744e+00 91 9 1
-5.436086e-01 1.141747e-01 -2.034160e+00 91 9 1
-4.675600e-01 2.265577e-01 -2.116682e+00 161 117 83
-4.945866e-01 2.168758e-01 -2.098250e+00 103 50 18
-2.931242e-01 -1.902636e-02 -1.741991e+00 52 28 26
-4.680901e-01 2.886414e-01 -2.034500e+00 78 18 2
-3.036041e-01 -4.230315e-01 -2.384251e+00 213 128 89
-4.368695e-01 -3.883721e-01 -2.270328e+00 112 25 2
-3.221419e-01 -3.969267e-01 -2.329631e+00 143 70 42
-3.436068e-01 -3.697323e-01 -2.283645e+00 113 23 1
-3.114112e-01 -2.290588e-01 -2.491582e+00 80 4 1
-3.918780e-01 -2.193399e-01 -2.426395e+00 134 57 36
-3.918780e-01 -2.193399e-01 -2.426395e+00 134 57 36
-3.625893e-01 -3.214209e-01 -2.261492e+00 111 15 1
-3.747243e-01 -2.211872e-01 -2.394823e+00 99 88 90
-4.615835e-01 -2.096887e-01 -2.353878e+00 90 75 78
-3.385095e-01 -2.068914e-01 -2.453698e+00 44 32 32
-4.035802e-01 -2.152604e-01 -2.378090e+00 40 23 25
-4.431091e-01 -2.031480e-01 -2.371044e+00 89 74 75
-4.623489e-01 -2.223551e-01 -2.321191e+00 150 65 34
-2.484954e-01 -1.435200e-01 -2.617852e+00 108 53 2
-3.790219e-01 -2.633653e-01 -2.301676e+00 98 7 2
-3.956422e-01 -1.995803e-01 -2.388481e+00 158 141 134
-2.356284e-01 -1.337158e-01 -2.627048e+00 141 92 42
-4.151707e-01 -2.050350e-01 -2.365983e+00 34 17 13
-3.888056e-01 -1.888909e-01 -2.403407e+00 143 128 124
-3.941578e-01 -1.883352e-01 -2.399445e+00 143 128 124
-3.959654e-01 -1.944451e-01 -2.374354e+00 145 127 122
-4.368298e-01 -1.951898e-01 -2.349046e+00 145 127 122
-4.067698e-01 -1.819900e-01 -2.394184e+00 39 21 12
-4.067540e-01 -1.820004e-01 -2.394206e+00 39 21 12
-3.887811e-01 -2.190748e-01 -2.334446e+00 137 54 26
-3.852042e-01 -2.655280e-01 -2.240676e+00 112 15 0
-3.778339e-01 -2.082002e-01 -2.337026e+00 102 8 0
-4.023532e-01 -1.806113e-01 -2.350095e+00 79 8 2
-3.941626e-01 -1.003636e-01 -2.474714e+00 105 61 26
-4.082026e-01 -2.277566e-01 -2.173787e+00 152 60 32
-1.684302e-02 -6.103226e-01 -1.819744e+00 46 108 21
-4.090864e-01 -1.551826e-01 -2.283652e+00 92 10 0
-4.105015e-01 -1.590413e-01 -2.254309e+00 144 54 30
-3.734315e-01 -2.727321e-01 -2.095491e+00 152 56 39
-4.172077e-01 -1.673994e-01 -2.216468e+00 87 10 0
-4.048746e-01 -1.519943e-01 -2.239460e+00 86 9 0
-4.139090e-01 -1.404528e-01 -2.244995e+00 148 64 37
-3.673343e-01 -8.650757e-02 -2.354049e+00 139 56 28
-3.731472e-01 -8.588326e-02 -2.350610e+00 139 56 28
-3.980747e-01 -2.264313e-01 -2.122841e+00 92 8 3
-4.272767e-01 -1.826000e-01 -2.165012e+00 147 56 34
-4.250358e-01 -1.830235e-01 -2.166058e+00 147 56 34
-4.225880e-01 -1.735044e-01 -2.178517e+00 70 1 2
-4.194617e-01 -1.825607e-01 -2.156106e+00 140 49 21
-4.270513e-01 -1.305103e-01 -2.228447e+00 108 14 3
-4.244394e-01 -9.584970e-02 -2.253752e+00 96 7 1
-3.983557e-01 -2.406803e-01 -2.052418e+00 151 52 24
-3.972155e-01 -2.409748e-01 -2.052725e+00 151 52 24
-4.211643e-01 -2.096649e-01 -2.084368e+00 108 9 1
-4.193163e-01 -7.706189e-02 -2.275350e+00 147 60 31
-4.193163e-01 -7.706189e-02 -2.275350e+00 147 60 31
-4.130381e-01 -2.016472e-01 -2.091812e+00 90 5 2
-3.949894e-01 -2.364050e-01 -2.044881e+00 101 4 1
-4.362552e-01 -1.669185e-01 -2.111366e+00 135 43 16
-4.288909e-01 -1.804504e-01 -2.078816e+00 95 15 1
-4.281031e-01 -7.793131e-02 -2.207830e+00 109 18 2
-4.446381e-01 -8.117166e-02 -2.194014e+00 149 58 31
-4.280190e-01 -5.938287e-02 -2.230127e+00 136 54 24
-4.347982e-01 -8.119549e-02 -2.191786e+00 97 5 0
-4.328085e-01 -1.700771e-01 -2.057966e+00 137 48 17
-4.435463e-01 -5.937603e-02 -2.209498e+00 150 59 36
-4.098920e-01 -5.861927e-02 -2.227191e+00 150 59 36
-4.518723e-01 -9.535882e-02 -2.153669e+00 80 8 0
-4.587756e-01 -1.311315e-01 -2.097560e+00 143 48 23
-4.561008e-01 -1.093776e-01 -2.123307e+00 137 48 18
-4.701798e-01 -5.664926e-02 -2.179435e+00 142 56 31
-4.296422e-01 -5.512230e-02 -2.199276e+00 142 56 31
-4.543013e-01 -5.939932e-02 -2.170325e+00 85 7 0
-4.520748e-01 -1.482767e-01 -2.039599e+00 85 9 1
-4.489017e-01 -1.290581e-01 -2.065878e+00 149 54 27
-4.435106e-01 -1.557244e-01 -2.015597e+00 79 3 3
-4.442386e-01 -1.416605e-01 -2.027227e+00 144 58 42
-4.423129e-01 -1.015549e-02 -2.198608e+00 138 48 24
-4.546951e-01 9.783703e-03 -2.209112e+00 134 53 26
-4.536037e-01 -1.334632e-01 -2.009223e+00 85 0 0
-4.723274e-01 -6.599382e-02 -2.093845e+00 133 48 21
-4.795736e-01 -6.128076e-02 -2.092401e+00 88 8 0
-4.692768e-01 -1.031615e-01 -2.037132e+00 97 6 3
-4.890276e-01 1.668809e-02 -2.153851e+00 145 56 28
-4.761130e-01 -7.462442e-02 -2.018867e+00 96 13 3
-4.978288e-01 4.379828e-03 -2.102966e+00 124 47 24
-4.668263e-01 -9.789171e-02 -1.970756e+00 106 15 1
-5.004874e-01 -2.840655e-02 -2.036401e+00 135 49 20
-4.685438e-01 -8.689254e-02 -1.955456e+00 136 44 21
-4.951022e-01 -6.094629e-02 -1.976404e+00 129 44 23
-5.070733e-01 -2.237074e-02 -2.013446e+00 106 15 2
-5.025591e-01 1.412031e-02 -2.058598e+00 97 9 2
-5.025591e-01 1.412031e-02 -2.058598e+00 97 9 2
-5.040890e-01 5.328481e-02 -2.096435e+00 133 56 36
-5.208373e-01 4.574646e-03 -2.022077e+00 134 46 22
-4.181972e-01 -1.179820e-01 -1.883175e+00 96 42 1
-4.993537e-01 -2.672406e-02 -1.980010e+00 89 1 0
-5.184162e-01 2.573514e-02 -2.038576e+00 106 12 1
-5.154727e-01 -1.187283e-02 -1.990746e+00 101 1 4
-5.145777e-01 -1.187116e-02 -1.991131e+00 101 1 4
-5.126163e-01 6.197410e-02 -2.079193e+00 88 5 0
-5.078444e-01 6.153115e-02 -2.074961e+00 137 50 23
-5.080625e-01 -2.979709e-02 -1.953470e+00 135 50 18
-5.073229e-01 -2.068799e-02 -1.955337e+00 104 14 2
-4.992132e-01 4.171827e-02 -2.030467e+00 87 4 0
-4.813383e-01 -5.505464e-02 -1.910492e+00 83 0 1
-5.314914e-01 7.026999e-02 -2.041641e+00 128 40 23
-5.268687e-01 6.938652e-02 -2.038566e+00 102 15 2
-5.337615e-01 6.531270e-02 -2.020564e+00 130 49 21
-5.246901e-01 5.916765e-02 -2.006689e+00 63 5 1
-5.318066e-01 2.722546e-02 -1.965772e+00 79 0 0
-4.799775e-01 1.816942e-01 -2.134430e+00 82 56 22
-4.799775e-01 1.816942e-01 -2.134430e+00 82 56 22
-4.573392e-01 2.095164e-01 -2.139961e+00 152 135 107
-5.461390e-01 1.374415e-01 -2.028764e+00 155 73 41
-4.726793e-01 -1.454955e-02 -1.805585e+00 149 55 22
-4.943312e-01 -1.197994e-02 -1.803621e+00 248 190 142
-3.223802e-01 4.829005e-02 -1.679479e+00 47 35 23
-2.409688e-01 7.469613e-02 -1.675199e+00 67 61 55
4.582814e-01 -2.248596e-01 -1.825775e+00 53 47 33
-3.325877e-01 -8.019832e-02 -2.543202e+00 113 60 28
-2.044506e-01 -8.916135e-02 -1.797570e+00 160 73 33
5.772247e-01 -4.840986e-01 -1.864974e+00 98 84 55
-3.501056e-01 2.226038e-01 -2.204605e+00 72 56 41
-1.670416e-01 -6.823753e-01 -1.858487e+00 22 49 12
-4.108076e-01 -5.603888e-04 -2.402822e+00 150 121 87
1.357553e-01 -5.951529e-01 -1.825336e+00 15 46 2
-4.090799e-01 -8.098086e-01 -1.877605e+00 56 43 6
-2.197241e-01 -7.112310e-01 -1.839909e+00 22 92 9
3.457600e-01 -5.665761e-01 -1.776810e+00 159 187 127
-3.565865e-01 -2.035480e-01 -1.946816e+00 105 55 0
-4.129819e-01 2.144816e-01 -2.167193e+00 75 58 42
-4.258825e-01 -7.773671e-01 -1.852175e+00 65 53 3
-4.126195e-01 -7.665953e-01 -1.842517e+00 211 208 148
-4.629210e-01 -3.291108e-01 -2.236673e+00 146 60 32
-3.674870e-01 -3.956821e-01 -2.110266e+00 105 47 1
-7.130287e-02 -6.743503e-01 -1.818411e+00 169 194 115
2.134719e-02 -6.314125e-01 -1.851698e+00 20 24 2
-4.947139e-01 -1.314525e-01 -2.117013e+00 87 0 0
-4.839405e-01 -5.049270e-02 -2.178186e+00 90 7 0
-4.751078e-01 -7.352368e-02 -2.118937e+00 82 3 0
-2.808139e-01 -2.248247e-01 -1.923268e+00 111 58 0
-4.843192e-01 2.372990e-02 -2.169393e+00 139 55 26
-4.160278e-01 -1.230456e-01 -1.951324e+00 96 11 0
-4.800194e-01 4.056353e-02 -2.111767e+00 71 16 4
-4.859207e-01 2.663976e-02 -2.012993e+00 137 47 20
-4.903793e-01 3.493317e-02 -2.010647e+00 66 14 3
-4.903793e-01 3.493317e-02 -2.010647e+00 66 14 3
-4.174978e-01 -7.880191e-01 -1.868656e+00 47 37 10
-3.569372e-01 -3.942210e-01 -2.094373e+00 147 82 24
1.423235e-02 -6.371878e-01 -1.845921e+00 111 121 81
-3.567981e-01 -3.249285e-01 -2.048727e+00 96 33 0
-4.252191e-01 -2.118319e-01 -2.055247e+00 142 51 24
2.639099e-01 -5.608843e-01 -1.806190e+00 33 83 14
3.265203e-01 -5.555384e-01 -1.786639e+00 31 90 8
-4.137495e-01 -7.726100e-01 -1.887710e+00 123 118 80
-4.154598e-01 1.639455e-01 -2.226264e+00 90 61 5
-2.589048e-01 -2.475114e-01 -1.935549e+00 160 109 27
-3.639801e-01 1.645729e-01 -2.273328e+00 117 97 46
-4.036712e-01 -7.708291e-01 -1.853633e+00 53 130 32
-4.054238e-01 -7.611698e-01 -1.856789e+00 33 97 20
-3.617882e-01 -1.610786e-01 -1.919761e+00 97 56 6
-4.584512e-01 -2.142654e-01 -2.093587e+00 141 47 23
-4.446291e-01 -2.036766e-01 -2.043183e+00 94 7 0
-3.519923e-01 -2.188732e-01 -1.955639e+00 104 56 0
-3.430075e-01 -8.198846e-01 -1.856003e+00 77 113 29
-3.061448e-01 -8.047851e-01 -1.851480e+00 65 106 15
-4.014720e-01 -2.752559e-01 -2.039723e+00 179 109 53
-3.607546e-01 -8.106093e-01 -1.894553e+00 123 118 79
-3.585012e-01 2.025502e-01 -2.236662e+00 91 74 44
-4.248690e-01 2.445348e-01 -2.118386e+00 135 87 54
-4.130180e-01 -2.360573e-01 -2.250248e+00 145 37 4
-5.488283e-02 1.187098e-01 -1.762412e+00 17 17 27
-2.786040e-01 -7.549863e-01 -1.846203e+00 213 195 157
-4.201473e-01 -1.905406e-01 -1.953087e+00 117 63 2
-4.174208e-01 -1.894665e-01 -1.939669e+00 146 99 20
4.249571e-01 -3.797752e-01 -1.976878e+00 95 89 65
7.529140e-01 -2.472672e-01 -1.928454e+00 82 77 56
7.529140e-01 -2.472672e-01 -1.928454e+00 82 77 56
9.063465e-01 -4.173035e-01 -1.749855e+00 52 45 19
-3.497250e-01 -6.767854e-01 -1.823890e+00 203 191 143
8.945083e-01 -6.837240e-01 -1.503912e+00 71 65 40
-5.348302e-01 -7.177574e-01 -1.854003e+00 208 194 149
-1.372794e-01 -5.990011e-01 -1.836919e+00 11 41 1
2.431733e-01 -7.348267e-01 -1.602995e+00 19 15 2
-2.074692e-01 -1.208250e-01 -1.822302e+00 162 111 36
-4.073962e-01 2.572119e-01 -2.131114e+00 146 93 48
-4.353790e-01 1.916003e-01 -2.162402e+00 78 66 52
-4.055154e-01 2.804647e-01 -2.112782e+00 105 74 43
-5.285715e-01 -7.002692e-01 -1.844902e+00 60 42 1
-5.760945e-01 -6.486305e-01 -1.828670e+00 67 118 23
-5.062469e-01 -6.815139e-01 -1.856010e+00 191 211 149
-1.546335e-01 -5.929808e-01 -1.801085e+00 169 191 129
-1.569232e-01 -5.956228e-01 -1.791499e+00 15 19 1
1.740329e+00 -3.543948e-01 -1.795461e+00 70 62 20
-4.704668e-01 -6.758790e-01 -1.857655e+00 21 80 4
-4.548967e-01 -6.823764e-01 -1.865599e+00 116 134 71
-4.548967e-01 -6.823764e-01 -1.865599e+00 116 134 71
-4.597196e-01 -6.882774e-01 -1.838521e+00 67 115 18
-9.567025e-02 -5.948302e-01 -1.837239e+00 98 114 68
-2.073216e-01 -2.750172e-01 -1.940322e+00 82 25 1
-3.154480e-01 -2.218326e-01 -1.917339e+00 107 57 0
7.687978e-01 -5.267304e-01 -1.806724e+00 82 99 61
1.186824e+00 -4.179869e-01 -1.889232e+00 92 86 64
-5.019674e-01 6.842516e-02 -2.071925e+00 86 10 0
-5.045286e-01 9.727828e-02 -2.093587e+00 93 17 5
-3.168019e-01 -1.330788e-01 -1.841853e+00 112 64 0
-4.443037e-01 -1.549988e-01 -2.468543e+00 109 34 0
-3.039887e-01 -4.221639e-01 -2.083519e+00 115 47 2
-2.698789e-01 -3.841006e-01 -2.050920e+00 117 56 1
-4.981452e-01 -1.209712e-01 -2.078049e+00 98 2 1
-2.137607e-01 -2.824136e-01 -1.943847e+00 134 81 22
-5.101647e-01 -1.114983e-01 -2.067334e+00 143 53 25
-1.753374e-01 -2.245693e-01 -1.902642e+00 85 41 0
-4.987244e-01 5.811205e-02 -2.102820e+00 88 12 0
-4.328919e-01 -8.550221e-02 -1.875818e+00 153 85 26
-4.977268e-01 -1.609584e-01 -2.228698e+00 84 0 0
-3.840355e-01 -2.354154e-01 -1.978916e+00 92 39 2
-5.206163e-01 -2.911975e-02 -2.076565e+00 90 11 2
-4.996203e-01 -5.816730e-02 -1.990700e+00 89 7 3
-4.949759e-01 -9.998964e-03 -1.939949e+00 90 9 1
-3.090023e-01 2.620966e-01 -1.865909e+00 57 59 71
5.717696e-01 -6.602261e-01 -1.642169e+00 95 85 58
1.603509e+00 -6.128874e-01 -1.447387e+00 209 193 139
2.063780e-01 -7.432867e-01 -1.616427e+00 16 11 0
5.327381e-01 -6.452103e-01 -1.632758e+00 110 102 79
-4.373101e-01 -9.817606e-02 -1.885020e+00 155 92 27
-4.959517e-01 -1.685500e-02 -1.950227e+00 136 45 16
4.142703e-01 -5.552689e-01 -1.819079e+00 98 113 70
-3.252174e-01 -1.333994e-01 -1.840287e+00 109 65 0
-4.721292e-01 -4.670301e-02 -1.904624e+00 67 2 0
-4.945178e-01 -2.424600e-02 -1.927779e+00 71 0 1
-3.142441e-01 -4.037265e-01 -2.121398e+00 148 83 29
-4.360792e-01 -2.156292e-01 -2.087245e+00 151 56 29
-3.721514e-01 -2.112467e-01 -1.948218e+00 158 109 40
5.379392e-01 -6.673783e-01 -1.634496e+00 51 45 21
-4.851806e-01 1.200531e-02 -2.151359e+00 84 2 0
-4.915952e-01 3.417326e-02 -2.140478e+00 93 14 0
-3.573702e-01 -1.721427e-01 -1.900099e+00 101 60 4
-5.194618e-01 -2.004118e-02 -1.988681e+00 81 0 0
-5.034317e-01 -2.088016e-02 -1.989655e+00 81 0 0
-2.575803e-01 7.217423e-02 -1.700591e+00 93 90 99
-4.609952e-01 -6.861672e-02 -2.239662e+00 93 6 4
-4.466586e-01 -1.556357e-01 -2.005236e+00 84 0 0
-4.964936e-01 -7.121086e-02 -2.040785e+00 87 1 1
-4.965796e-01 -1.781116e-02 -1.997965e+00 146 54 32
-4.965796e-01 -1.781116e-02 -1.997965e+00 146 54 32
-5.101981e-01 1.165841e-02 -1.964759e+00 65 2 2
-4.947908e-01 -5.947536e-03 -1.941475e+00 131 51 32
-2.802895e-01 4.996747e-02 -1.888552e+00 186 107 58
-4.761235e-01 -6.452403e-01 -1.865748e+00 193 179 136
-4.450732e-01 -1.830728e-01 -2.176403e+00 139 40 17
-4.133030e-01 -2.299230e-01 -2.055816e+00 149 52 22
-5.801023e-01 -6.178694e-01 -1.835016e+00 97 170 86
-4.367642e-01 -1.549199e-01 -1.985263e+00 154 56 30
-4.922653e-01 -3.645837e-02 -2.105679e+00 140 49 24
-4.766127e-01 -6.159913e-02 -1.946965e+00 83 2 4
-5.081281e-01 -7.802246e-03 -2.002643e+00 78 2 0
-4.951553e-01 -3.762430e-02 -1.933683e+00 79 5 0
-6.191165e-01 -6.219058e-01 -1.842149e+00 156 168 102
-4.098047e-01 -2.637646e-01 -2.122251e+00 151 54 30
-4.799877e-01 -8.789772e-02 -2.055237e+00 96 9 0
-5.136686e-01 1.125885e-02 -1.963598e+00 66 1 0
-3.568879e-01 -6.527740e-01 -1.849052e+00 33 75 7
6.041821e-01 -6.534246e-01 -1.679878e+00 97 91 62
4.896060e-01 -5.247005e-01 -1.797190e+00 19 55 2
1.271165e+00 -4.984788e-01 -1.713653e+00 82 79 57
1.760668e-01 -4.098793e-01 -1.448388e+00 209 195 148
6.487049e-01 -3.844943e-01 -1.652171e+00 40 38 18
9.799084e-01 -8.011366e-01 -3.508756e+00 164 99 50
1.608562e-01 -5.664458e-01 -1.502193e+00 120 111 82
1.288511e-01 -2.268282e-01 -1.971226e+00 98 92 62
5.434952e-02 -4.985167e-01 -1.702871e+00 145 164 103
2.722842e-01 -5.431627e-01 -1.616839e+00 30 30 16
2.670120e-01 -4.110709e-01 -1.679221e+00 19 13 1
2.222408e-01 -2.945034e-01 -1.852398e+00 36 33 13
5.195404e-01 -3.638547e-01 -1.674201e+00 77 69 58
5.195404e-01 -3.638547e-01 -1.674201e+00 77 69 58
3.673888e-01 -9.280617e-02 -1.952158e+00 28 25 3
3.158706e-01 -4.847824e-01 -1.638921e+00 92 90 69
3.238466e-01 -2.857648e-01 -1.788982e+00 70 66 55
6.993046e-02 -4.936736e-01 -1.727181e+00 11 67 2
2.121504e-01 -5.922813e-01 -1.551565e+00 25 26 7
1.988622e-01 -1.833903e-01 -1.946154e+00 111 105 81
2.441224e-01 -6.452265e-01 -1.489729e+00 67 64 41
6.224413e-01 -2.695794e-01 -1.786649e+00 41 38 7
-4.424984e-01 -2.120263e-01 -2.028990e+00 100 15 6
-4.870182e-01 -1.203132e-01 -2.083429e+00 96 6 0
-4.820089e-01 -1.219840e-01 -2.062058e+00 85 9 0
-4.925362e-01 4.815383e-02 -2.002646e+00 86 18 0
-4.925362e-01 4.815383e-02 -2.002646e+00 86 18 0
-4.874329e-01 -1.663737e-01 -2.155670e+00 84 10 0
-4.657535e-01 -1.342419e-01 -2.012721e+00 141 49 25
7.403901e-01 -7.154863e-01 -1.527333e+00 59 58 37
1.586645e+00 -5.882350e-01 -1.449171e+00 208 190 152
-5.888850e-01 -5.740290e-01 -1.814633e+00 41 125 28
-4.411106e-01 -5.736333e-01 -1.810250e+00 38 124 26
6.047813e-01 -9.708847e-01 -1.636484e+00 210 190 149
1.152517e+00 -6.550714e-01 -1.504592e+00 100 93 67
-1.673877e-01 -6.325706e-01 -1.823505e+00 20 83 4
9.510096e-01 -6.475222e-01 -1.518416e+00 100 93 65
-4.922413e-01 3.678955e-02 -2.048318e+00 89 11 1
-4.240610e-01 -3.052944e-01 -2.333434e+00 141 50 24
-4.201426e-01 -5.756624e-01 -1.806126e+00 70 119 20
-2.682863e-01 -4.354143e-01 -2.134659e+00 146 86 24
-1.851224e-01 -4.731563e-01 -2.125648e+00 113 53 0
-2.464020e-01 -4.311822e-01 -2.139249e+00 95 34 1
-2.316063e-01 -4.322218e-01 -2.110903e+00 150 86 28
-2.307872e-01 -4.324768e-01 -2.111302e+00 150 86 28
-4.444083e-01 -2.067137e-01 -2.140337e+00 136 51 24
1.001898e+00 -4.818638e-01 -1.803425e+00 86 75 53
9.142242e-01 -4.666353e-01 -1.801652e+00 86 75 53
9.739360e-01 -6.163063e-01 -1.616162e+00 79 75 57
-4.692295e-01 5.667624e-02 -2.137662e+00 133 51 27
-4.838501e-01 5.587196e-03 -2.010557e+00 137 48 21
-4.984569e-01 9.979970e-02 -2.064115e+00 66 13 0
-4.645555e-01 -2.191383e-01 -2.354343e+00 37 26 30
-2.344333e-01 -4.474424e-01 -2.132498e+00 144 85 23
-2.344333e-01 -4.474424e-01 -2.132498e+00 144 85 23
-2.400768e-01 -4.376616e-01 -2.116647e+00 107 45 1
-2.332835e-01 -4.308056e-01 -2.122613e+00 147 84 24
-2.402722e-01 -4.216990e-01 -2.099642e+00 115 47 1
-2.381420e-01 -4.223358e-01 -2.100714e+00 115 47 1
-2.130509e-01 -2.816279e-01 -1.942862e+00 134 81 22
6.941498e-01 -4.880050e-01 -1.814844e+00 6 10 0
-4.057196e-01 -2.327119e-01 -2.044215e+00 105 12 3
-4.879312e-01 -1.877066e-02 -2.012464e+00 140 46 13
1.095857e+00 -6.414343e-01 -1.508613e+00 103 98 69
-5.150343e-01 5.680603e-02 -2.078727e+00 90 11 4
-5.280592e-01 6.568186e-02 -2.077110e+00 134 46 16
5.950534e-01 -6.947135e-01 -1.647267e+00 39 36 20
6.023662e-01 -6.847903e-01 -1.640834e+00 95 89 63
6.533981e-01 -7.084996e-01 -1.610317e+00 90 84 59
6.482130e-01 -6.013807e-01 -1.698451e+00 83 78 57
6.723333e-01 -6.072666e-01 -1.697897e+00 83 78 57
-4.928993e-01 -1.074015e-02 -2.101631e+00 89 10 0
6.877980e-01 -4.522372e-01 -1.765476e+00 128 135 61
-5.158917e-01 -1.500165e-02 -2.031485e+00 140 49 17
-5.158917e-01 -1.500165e-02 -2.031485e+00 140 49 17
-4.890670e-01 -6.846710e-03 -2.047632e+00 82 3 0
-5.031094e-01 4.431176e-02 -2.108643e+00 65 15 1
-4.612385e-01 -6.639568e-02 -1.967982e+00 84 10 1
-4.833934e-01 7.047977e-02 -2.125845e+00 127 50 24
-4.884923e-01 -9.070867e-03 -2.023818e+00 142 46 16
-4.737293e-01 -8.059842e-02 -1.937415e+00 136 44 20
-5.147898e-01 3.602955e-02 -2.061522e+00 78 14 1
-4.579279e-01 -7.600341e-02 -1.910466e+00 89 3 2
-5.081157e-01 6.590254e-02 -2.009066e+00 134 48 21
-5.266610e-01 -2.654867e-02 -2.068631e+00 132 44 22
-5.266610e-01 -2.654867e-02 -2.068631e+00 132 44 22
-5.060445e-01 -4.643821e-02 -2.013566e+00 137 51 22
-5.060445e-01 -4.643821e-02 -2.013566e+00 137 51 22
-4.677619e-01 -7.564261e-02 -1.962421e+00 97 2 0
-4.975308e-01 -1.621262e-02 -2.024226e+00 142 52 27
8.792319e-01 -3.625697e-01 -1.869601e+00 42 41 22
-5.220736e-01 7.491755e-02 -2.108586e+00 91 11 8
-4.601863e-01 -6.098505e-02 -1.932698e+00 87 2 0
-5.139330e-01 8.339327e-05 -1.963140e+00 130 42 20
-4.555864e-01 -5.893052e-02 -1.890492e+00 76 0 1
-5.215295e-01 2.407935e-03 -2.094143e+00 125 47 24
-5.104527e-01 2.444628e-02 -2.126017e+00 84 6 0
-4.872734e-01 -5.460728e-02 -2.021201e+00 86 8 0
-5.081258e-01 5.002654e-02 -2.143576e+00 98 9 4
-4.913839e-01 -6.471720e-02 -1.979911e+00 79 3 0
-4.688834e-01 -5.336720e-02 -1.917553e+00 142 57 29
-4.980606e-01 -2.334894e-02 -1.940722e+00 136 48 27
