ply
format ascii 1.0
element face 0
property list uchar int vertex_indices
element vertex 935
property float x
property float y
property float z
property uchar diffuse_red
property uchar diffuse_green
property uchar diffuse_blue
end_header
4.255425e-03 -2.208747e-01 -1.778582e+00 152 58 33
-9.326796e-02 -2.222697e-01 -1.782907e+00 167 70 38
-2.280479e-01 -2.236304e-01 -1.815149e+00 96 37 4
-2.280782e-01 -2.236526e-01 -1.815401e+00 96 37 4
-3.680370e-01 -2.200215e-01 -1.889861e+00 111 60 5
-3.854205e-01 -2.200308e-01 -1.879132e+00 137 85 10
-3.114716e-01 -2.188505e-01 -1.842138e+00 167 123 55
-3.115151e-01 -2.188525e-01 -1.842372e+00 167 123 55
-3.189958e-01 -2.121390e-01 -1.853718e+00 163 110 33
-4.710645e-02 -2.089843e-01 -1.775101e+00 159 65 39
-8.905828e-02 -2.086938e-01 -1.784142e+00 180 85 55
-9.404143e-02 -2.099424e-01 -1.780509e+00 123 23 4
-4.345974e-02 -2.055446e-01 -1.778072e+00 119 23 1
-2.280044e-01 -2.081943e-01 -1.812557e+00 105 46 6
-2.278960e-01 -2.081108e-01 -1.814041e+00 105 46 6
2.692653e-01 -1.996597e-01 -1.724415e+00 215 198 163
-3.366487e-01 -2.041761e-01 -1.853519e+00 156 100 22
-3.574583e-01 -2.012415e-01 -1.859865e+00 163 114 43
-3.851622e-01 -2.006668e-01 -1.873181e+00 155 113 40
-6.028875e-02 -1.987217e-01 -1.772661e+00 120 21 0
-1.537672e-01 -1.999960e-01 -1.788894e+00 180 108 51
-3.506604e-01 -2.001991e-01 -1.853221e+00 153 101 23
-3.780468e-02 -1.977336e-01 -1.774148e+00 163 62 36
-3.259123e-01 -1.966090e-01 -1.852612e+00 128 71 4
-2.296485e-01 -1.961679e-01 -1.813098e+00 77 28 2
-2.294587e-01 -1.958271e-01 -1.821486e+00 77 28 2
-3.035949e-01 -1.957109e-01 -1.828908e+00 153 103 25
-2.957043e-01 -1.930668e-01 -1.835993e+00 107 55 3
-3.862241e-01 -1.888649e-01 -1.890406e+00 162 115 43
-2.964013e-01 -1.903086e-01 -1.824118e+00 106 56 4
-4.177778e-01 -1.880944e-01 -1.891706e+00 139 94 45
-3.341169e-01 -1.867597e-01 -1.858745e+00 156 114 42
-4.087835e-01 -1.853830e-01 -1.889750e+00 129 55 11
-1.245701e-01 -1.849118e-01 -1.788524e+00 91 27 0
-3.809104e-01 -1.792994e-01 -1.867634e+00 129 73 1
-3.816378e-01 -1.788457e-01 -1.872720e+00 129 73 1
-9.437835e-02 -1.791915e-01 -1.775465e+00 72 12 0
-9.367864e-02 -1.790438e-01 -1.779049e+00 72 12 0
-2.882495e-01 -1.792958e-01 -1.828266e+00 121 56 2
-1.037718e-01 -1.763705e-01 -1.781339e+00 152 91 26
-8.725902e-02 -1.768213e-01 -1.774935e+00 70 15 1
-3.166994e-01 -1.746855e-01 -1.836535e+00 119 59 1
-3.167535e-01 -1.746977e-01 -1.836246e+00 119 59 1
-3.567343e-01 -1.738528e-01 -1.852919e+00 113 68 5
-3.588535e-01 -1.724607e-01 -1.843527e+00 162 114 46
-6.754965e-02 -1.691903e-01 -1.773673e+00 152 97 49
-6.754965e-02 -1.691903e-01 -1.773673e+00 152 97 49
-1.324080e-01 -1.692614e-01 -1.783118e+00 84 24 5
-2.105336e-01 -1.690312e-01 -1.801112e+00 95 35 2
-7.076270e-02 -1.659304e-01 -1.774612e+00 84 22 10
-4.170003e-01 -1.628718e-01 -1.891444e+00 145 77 31
-1.327074e-01 -1.653861e-01 -1.782314e+00 77 14 3
-1.332768e-01 -1.659729e-01 -1.779153e+00 77 14 3
-2.214993e-01 -1.660680e-01 -1.806216e+00 115 60 1
-3.428593e-01 -1.649558e-01 -1.845459e+00 161 107 35
-3.385051e-01 -1.651040e-01 -1.841523e+00 126 69 5
-3.394648e-01 -1.637836e-01 -1.851514e+00 126 69 5
-1.143936e-01 -1.628291e-01 -1.779817e+00 163 96 31
-7.332878e-02 -1.618531e-01 -1.765672e+00 141 81 22
-3.928023e-01 -1.583511e-01 -1.879284e+00 123 74 9
-2.227292e-01 -1.618684e-01 -1.800227e+00 110 50 2
-2.661502e-01 -1.611300e-01 -1.812875e+00 129 70 4
-2.661502e-01 -1.611300e-01 -1.812875e+00 129 70 4
-2.314827e-01 -1.615876e-01 -1.799218e+00 112 50 4
-2.799636e-01 -1.609161e-01 -1.821767e+00 115 64 0
-3.729582e-01 -1.582154e-01 -1.859569e+00 125 73 1
-3.333291e-01 -1.584281e-01 -1.839465e+00 114 62 2
-3.340140e-01 -1.574683e-01 -1.846056e+00 114 62 2
-3.130334e-01 -1.566989e-01 -1.833139e+00 119 69 3
-9.501941e-02 -1.545497e-01 -1.779829e+00 145 84 18
-3.216557e-01 -1.551699e-01 -1.832997e+00 165 119 44
-3.214284e-01 -1.557339e-01 -1.828688e+00 165 119 44
-3.593461e-01 -1.460676e-01 -1.871181e+00 155 109 31
1.591136e-02 -1.477642e-01 -1.785700e+00 180 113 65
1.764716e-02 -1.466767e-01 -1.790051e+00 180 113 65
-3.262850e-01 -1.521571e-01 -1.843332e+00 120 74 3
-2.337931e-01 -1.509976e-01 -1.810316e+00 84 18 0
-3.844507e-01 -1.476283e-01 -1.865426e+00 124 72 2
-2.293372e-01 -1.482678e-01 -1.804734e+00 160 102 41
-2.291881e-01 -1.479432e-01 -1.805672e+00 160 102 41
-4.764832e-02 -1.455034e-01 -1.769218e+00 83 18 2
-2.365967e-01 -1.488205e-01 -1.798964e+00 168 111 59
-4.443257e-02 -1.451451e-01 -1.767623e+00 148 85 32
-2.336071e-01 -1.460613e-01 -1.797347e+00 96 35 9
-2.401843e-01 -1.459630e-01 -1.805748e+00 88 21 10
-2.403072e-01 -1.457255e-01 -1.805794e+00 88 21 10
-1.598434e-01 -1.396752e-01 -1.808393e+00 149 94 28
-2.002914e-01 -1.426304e-01 -1.796811e+00 183 118 60
-9.771383e-02 -1.411664e-01 -1.771365e+00 108 40 1
-9.717144e-02 -1.406733e-01 -1.774094e+00 108 40 1
-6.612785e-02 -1.334229e-01 -1.776760e+00 142 81 24
-2.534706e-01 -1.376335e-01 -1.803346e+00 151 98 27
-2.716825e-01 -1.369651e-01 -1.808818e+00 99 38 11
-2.576895e-01 -1.331782e-01 -1.819528e+00 88 35 0
-3.862307e-01 -1.318909e-01 -1.864679e+00 130 82 5
-2.506544e-01 -1.338689e-01 -1.807894e+00 75 20 2
-2.681595e-01 -1.338466e-01 -1.810514e+00 166 120 52
-3.723981e-01 -1.290831e-01 -1.865979e+00 138 87 22
-2.611312e-01 -1.330676e-01 -1.812170e+00 158 110 46
-2.611312e-01 -1.330676e-01 -1.812170e+00 158 110 46
1.374126e-02 -1.264542e-01 -1.764615e+00 153 99 37
-2.998450e-01 -1.302133e-01 -1.825926e+00 102 49 2
-2.996712e-01 -1.307455e-01 -1.823668e+00 102 49 2
-2.893409e-01 -1.330882e-01 -1.807938e+00 154 104 40
-1.571197e-01 -1.307656e-01 -1.781185e+00 153 95 38
-2.550033e-01 -1.318859e-01 -1.800105e+00 161 109 52
-3.057864e-01 -1.300879e-01 -1.824138e+00 96 40 3
-3.274550e-01 -1.299459e-01 -1.825981e+00 152 99 32
-3.273593e-01 -1.300376e-01 -1.825838e+00 152 99 32
-1.610995e-01 -1.302013e-01 -1.777363e+00 69 6 0
2.523671e-02 -1.230266e-01 -1.770180e+00 178 114 63
-2.583626e-01 -1.306907e-01 -1.798562e+00 101 41 5
-1.028548e-01 -1.254239e-01 -1.767871e+00 75 11 0
-1.015819e-01 -1.243484e-01 -1.773430e+00 75 11 0
-3.624761e-01 -1.232286e-01 -1.851418e+00 153 105 32
-3.611289e-01 -1.181297e-01 -1.847632e+00 121 74 6
-3.792465e-01 -1.195971e-01 -1.849416e+00 119 71 7
-3.538508e-01 -1.166208e-01 -1.841191e+00 95 47 1
-9.778568e-02 -1.174493e-01 -1.761141e+00 83 22 9
-2.005367e-01 -1.168958e-01 -1.792885e+00 183 105 54
-2.260540e-01 -1.154109e-01 -1.799175e+00 77 16 1
-2.261858e-01 -1.133231e-01 -1.809110e+00 77 16 1
-5.211861e-02 -1.103565e-01 -1.763717e+00 150 86 33
-1.582249e-01 -1.122145e-01 -1.779787e+00 168 112 65
-1.588176e-01 -1.131575e-01 -1.775857e+00 168 112 65
-3.687451e-01 -1.070843e-01 -1.851085e+00 161 107 42
-2.407386e-01 -1.094078e-01 -1.800176e+00 74 13 0
-2.268560e-01 -1.114739e-01 -1.785078e+00 97 33 5
-1.588977e-01 -1.061376e-01 -1.788088e+00 92 31 0
-1.595064e-01 -1.075004e-01 -1.782703e+00 92 31 0
-2.341963e-01 -1.108427e-01 -1.788464e+00 89 34 1
7.460044e-03 -9.962963e-02 -1.758322e+00 110 52 0
3.480428e-02 -9.360401e-02 -1.767014e+00 178 115 73
3.925026e-02 -9.129814e-02 -1.776472e+00 178 115 73
-3.970829e-01 -9.738641e-02 -1.863502e+00 120 66 4
4.048397e-02 -9.221658e-02 -1.771012e+00 115 63 16
-3.679999e-01 -9.303253e-02 -1.840311e+00 164 104 37
-3.808249e-01 -9.129900e-02 -1.852405e+00 86 33 2
1.429144e-02 -8.834908e-02 -1.759063e+00 129 72 6
1.296076e-02 -8.500860e-02 -1.767131e+00 153 100 33
-3.827813e-01 -9.000696e-02 -1.840956e+00 162 114 49
-2.760605e-01 -9.485559e-02 -1.792289e+00 187 98 63
-2.808896e-01 -8.943126e-02 -1.813019e+00 131 51 14
-3.812895e-01 -8.517501e-02 -1.852379e+00 103 50 5
-3.798993e-01 -8.731362e-02 -1.844344e+00 103 50 5
-3.927256e-01 -8.532825e-02 -1.850918e+00 110 58 8
-3.612175e-01 -8.711081e-02 -1.835047e+00 170 123 63
-6.893833e-02 -8.633952e-02 -1.757253e+00 92 27 1
-6.694732e-02 -8.426639e-02 -1.762774e+00 92 27 1
-7.519134e-02 -8.365030e-02 -1.766708e+00 66 8 4
-3.851402e-01 -8.407494e-02 -1.839756e+00 121 79 6
-3.859194e-01 -8.262356e-02 -1.847074e+00 121 79 6
-1.418773e-03 -7.941097e-02 -1.760559e+00 155 101 32
-9.826278e-02 -8.286212e-02 -1.763860e+00 72 13 7
-6.697526e-02 -7.973435e-02 -1.755619e+00 98 36 0
-6.697526e-02 -7.973435e-02 -1.755619e+00 98 36 0
-1.747659e-01 -8.047197e-02 -1.773202e+00 176 110 34
-3.574343e-01 -7.848610e-02 -1.829257e+00 178 104 68
1.548154e-02 -7.111419e-02 -1.760553e+00 128 69 5
-1.683792e-01 -7.883826e-02 -1.776114e+00 146 88 30
6.308167e-03 -7.383002e-02 -1.750308e+00 156 103 36
1.139979e-02 -7.053555e-02 -1.761483e+00 156 103 36
-1.431474e-01 -7.876927e-02 -1.769011e+00 93 31 0
-4.213195e-01 -6.897779e-02 -1.869599e+00 130 65 19
-5.615118e-02 -7.267359e-02 -1.762306e+00 73 26 8
-5.127838e-02 -7.287373e-02 -1.753788e+00 77 32 3
-3.343173e-02 -6.584861e-02 -1.773165e+00 159 112 61
-1.423011e-01 -7.487164e-02 -1.761466e+00 97 33 7
-1.645967e-01 -7.290209e-02 -1.774302e+00 76 21 0
-3.658902e-01 -7.274190e-02 -1.825541e+00 179 95 58
-3.677941e-01 -6.916898e-02 -1.837561e+00 179 95 58
-1.509719e-01 -7.182211e-02 -1.772684e+00 86 26 6
-1.159877e-01 -7.124036e-02 -1.760888e+00 151 94 29
-3.283592e-02 -6.558738e-02 -1.757546e+00 81 32 0
-1.232874e-01 -6.924010e-02 -1.764296e+00 80 27 10
-1.234531e-01 -6.937131e-02 -1.763092e+00 80 27 10
-1.409450e-01 -7.057488e-02 -1.760139e+00 105 47 9
-1.391784e-01 -6.815300e-02 -1.767205e+00 105 47 9
-3.515968e-01 -6.762897e-02 -1.811573e+00 184 81 48
-1.520487e-01 -6.508107e-02 -1.770542e+00 163 104 25
-3.120297e-02 -6.307649e-02 -1.748326e+00 145 91 31
-1.405748e-01 -6.370422e-02 -1.769665e+00 164 110 42
-1.302187e-01 -5.599256e-02 -1.776687e+00 128 37 2
-3.485266e-01 -6.105097e-02 -1.805045e+00 182 84 47
-3.485266e-01 -6.105097e-02 -1.805045e+00 182 84 47
2.876023e-03 -4.814819e-02 -1.761147e+00 110 53 0
-2.837595e-02 -3.484317e-02 -1.752914e+00 172 122 55
-2.610707e-01 -5.648834e-03 -1.802309e+00 197 81 39
-2.684105e-01 -5.069782e-03 -1.802562e+00 206 99 55
-2.865870e-01 -6.065302e-03 -1.793942e+00 239 145 101
-1.561976e-01 8.573538e-03 -1.780592e+00 186 114 78
3.338138e-02 1.154664e-02 -1.745925e+00 145 83 40
3.742456e-02 1.565262e-02 -1.754073e+00 145 83 40
-3.253883e-01 4.251515e-03 -1.801274e+00 193 90 49
-1.358161e-01 2.189021e-02 -1.797495e+00 222 150 120
-1.478638e-01 2.181284e-02 -1.793344e+00 131 28 9
-1.426204e-01 1.806439e-02 -1.781277e+00 132 30 9
-1.732360e-01 2.610780e-02 -1.754315e+00 39 32 38
3.469082e-02 4.794804e-02 -1.751738e+00 177 89 46
-1.517909e-01 3.286594e-02 -1.753435e+00 89 83 98
-1.652211e-01 3.747118e-02 -1.767233e+00 16 10 20
-1.721320e-01 3.732217e-02 -1.764145e+00 14 12 26
-3.187821e-01 4.315500e-02 -1.812061e+00 79 77 90
1.585547e-02 7.885199e-02 -1.743575e+00 82 25 5
2.021445e-02 9.445031e-02 -1.749074e+00 30 18 23
-3.194757e-01 1.458252e-01 -1.804771e+00 54 53 67
-1.030162e-01 1.953281e-01 -1.771953e+00 57 44 61
-1.206953e-01 1.929077e-01 -1.771197e+00 111 100 110
-1.185383e-01 1.977402e-01 -1.776717e+00 111 100 110
-1.835705e-01 1.909574e-01 -1.782085e+00 56 44 55
-2.154823e-01 1.962522e-01 -1.795916e+00 58 47 63
-2.323797e-01 2.062493e-01 -1.817247e+00 117 103 111
-2.324834e-01 2.125444e-01 -1.827344e+00 117 103 111
-1.332438e-01 1.982961e-01 -1.772274e+00 62 47 61
-9.979646e-02 2.025397e-01 -1.769211e+00 63 49 66
-1.142648e-01 2.054902e-01 -1.777680e+00 121 108 118
-7.205693e-02 1.995764e-01 -1.755702e+00 112 96 101
-1.569426e-01 2.097548e-01 -1.790266e+00 120 108 119
-1.615260e-01 2.097018e-01 -1.791813e+00 60 49 62
-1.618389e-01 2.063022e-01 -1.786375e+00 60 49 62
-1.261353e-01 2.155203e-01 -1.790845e+00 124 104 106
-1.693842e-01 2.089695e-01 -1.790843e+00 58 46 60
-7.808018e-02 2.003735e-01 -1.755315e+00 113 99 105
-1.377257e-01 2.101121e-01 -1.783884e+00 122 108 110
-1.423491e-01 2.129663e-01 -1.789634e+00 63 47 58
-3.298884e-01 2.133526e-01 -1.832248e+00 56 40 52
-3.297260e-01 2.177977e-01 -1.838494e+00 56 40 52
-1.777619e-01 2.080879e-01 -1.787899e+00 66 54 61
-1.984666e-01 2.199584e-01 -1.808917e+00 46 36 49
-2.146586e-01 2.198825e-01 -1.812095e+00 50 38 48
-2.138761e-01 2.207514e-01 -1.812810e+00 50 38 48
-2.196487e-01 2.190882e-01 -1.812536e+00 51 37 44
-2.076386e-01 2.156732e-01 -1.803360e+00 29 18 35
-1.490027e-01 2.236537e-01 -1.802229e+00 112 97 101
-1.490027e-01 2.236537e-01 -1.802229e+00 112 97 101
-3.327204e-01 2.265017e-01 -1.844831e+00 112 99 116
-3.329217e-01 2.267689e-01 -1.845443e+00 112 99 116
-9.354936e-02 2.060786e-01 -1.760233e+00 59 46 55
-8.723212e-02 2.249225e-01 -1.788308e+00 59 46 55
-2.034953e-01 2.274218e-01 -1.816363e+00 108 96 106
-3.258943e-01 2.182090e-01 -1.826571e+00 61 47 62
-1.318929e-01 2.280343e-01 -1.796556e+00 65 50 57
-1.324783e-01 2.257023e-01 -1.793029e+00 65 50 57
-1.488240e-01 2.253872e-01 -1.795330e+00 65 52 64
-1.489812e-01 2.251424e-01 -1.795263e+00 65 52 64
-1.781697e-01 2.383468e-01 -1.822876e+00 62 48 61
-2.251311e-01 2.238412e-01 -1.808960e+00 69 52 60
-1.382852e-01 1.528993e-01 -1.682241e+00 116 101 100
-4.472542e-01 2.262836e-01 -1.851541e+00 103 84 82
1.403638e-02 2.237006e-01 -1.740725e+00 109 94 87
2.114220e-02 2.243012e-01 -1.730898e+00 110 93 69
-4.493044e-01 2.536965e-01 -1.871046e+00 197 182 142
-1.016978e-03 2.169213e-01 -1.709283e+00 87 72 50
-4.327771e-01 2.702558e-01 -1.875075e+00 199 186 145
-9.808800e-02 3.163161e-01 -1.836707e+00 37 30 46
-9.794946e-02 3.189004e-01 -1.840710e+00 37 30 46
-2.703055e-01 3.208562e-01 -1.879192e+00 129 118 125
-1.007731e-01 3.137137e-01 -1.827835e+00 85 76 86
-1.135443e-01 3.040719e-01 -1.816407e+00 100 88 96
1.770305e-01 -3.203495e-01 -1.993697e+00 199 177 138
2.694251e-01 -4.071925e-01 -1.681878e+00 162 118 71
2.694251e-01 -4.071925e-01 -1.681878e+00 162 118 71
2.265580e-01 -5.990198e-01 -2.065333e+00 114 93 59
-2.026669e-01 -1.346617e-01 -1.788426e+00 169 110 49
4.169734e-02 -4.709507e-01 -1.685398e+00 188 203 140
1.377336e-01 -4.408951e-01 -1.689116e+00 7 80 9
1.886672e-01 -4.207926e-01 -1.685387e+00 22 88 20
2.090522e-01 -4.153903e-01 -1.684491e+00 22 84 10
1.326477e-01 -4.397293e-01 -1.697691e+00 198 209 157
2.175618e-01 -4.323640e-01 -1.676894e+00 163 174 125
1.604892e-01 -4.281010e-01 -1.694572e+00 30 115 30
-2.393874e-01 -1.093313e-01 -1.780194e+00 149 89 23
-9.332440e-02 -8.474408e-02 -1.771829e+00 85 32 6
-1.293688e-01 -6.756174e-02 -1.759331e+00 146 85 27
1.763678e-01 -6.485087e-01 -1.676225e+00 98 90 64
1.349548e-01 -4.458212e-01 -1.680829e+00 26 96 17
3.183481e-01 -3.888257e-01 -1.678658e+00 124 116 90
-1.161557e-01 -2.922767e-01 -1.847872e+00 82 2 0
-3.033565e-01 -2.785232e-01 -1.863740e+00 98 47 1
8.951205e-02 -3.325806e-01 -1.895404e+00 212 193 156
6.447142e-01 -6.779575e-01 -1.574412e+00 186 177 131
4.546172e-01 -4.865104e-01 -1.553478e+00 92 90 69
-1.379679e-02 -4.911013e-01 -1.700355e+00 15 71 12
7.056274e-02 -4.868681e-01 -1.675344e+00 27 35 12
-2.262256e-01 -4.681227e-01 -1.885349e+00 101 43 0
-6.390286e-02 -3.643922e-01 -1.857346e+00 82 0 0
-3.507714e-02 -3.555348e-01 -1.867988e+00 127 38 23
-1.018840e-01 -3.401093e-01 -1.844836e+00 93 12 5
-1.395784e-01 -3.312327e-01 -1.839553e+00 130 40 6
-2.026072e-01 -2.609892e-01 -1.832232e+00 90 40 2
-3.695764e-01 -2.184751e-01 -1.893902e+00 114 63 2
-3.687507e-01 -2.179011e-01 -1.878203e+00 114 63 2
-2.105755e-01 -1.946226e-01 -1.805582e+00 92 41 3
-3.424421e-01 -1.887949e-01 -1.855590e+00 151 104 34
-1.169889e-01 -1.767169e-01 -1.796252e+00 84 24 2
-3.512915e-01 -1.720295e-01 -1.853974e+00 154 104 35
-2.129881e-01 -1.523616e-01 -1.793140e+00 94 31 0
-2.249991e-01 -1.488169e-01 -1.793468e+00 105 44 2
-3.837537e-01 -1.498089e-01 -1.866179e+00 123 71 0
-2.195380e-01 -1.435007e-01 -1.794166e+00 153 99 24
-2.169448e-01 -1.193354e-01 -1.782241e+00 81 21 0
-3.846105e-01 -1.141775e-01 -1.856663e+00 155 110 37
-5.053825e-02 -1.056236e-01 -1.788972e+00 96 32 0
-1.512068e-01 -9.666677e-02 -1.772717e+00 69 19 0
-3.891705e-01 -7.909599e-02 -1.842921e+00 162 111 46
1.744345e-01 -5.738891e-01 -1.548200e+00 30 28 19
2.123689e-01 -5.439166e-01 -1.587776e+00 109 108 95
9.895031e-02 -4.674184e-01 -1.676470e+00 36 108 36
1.013528e-01 -4.695185e-01 -1.679792e+00 36 108 36
1.303144e-01 -4.653988e-01 -1.676046e+00 112 138 91
1.498684e-01 -4.480652e-01 -1.683509e+00 39 84 22
3.080726e-01 -3.898152e-01 -1.682597e+00 119 101 64
-1.904736e-01 -3.914590e-01 -1.862665e+00 111 40 0
-1.968950e-01 -3.003968e-01 -1.844378e+00 112 46 0
-1.826812e-01 -2.408752e-01 -1.814225e+00 168 85 47
1.882581e-01 -2.946768e-01 -1.925890e+00 28 19 2
-3.670492e-01 -2.285572e-01 -1.896136e+00 152 108 35
-2.147397e-01 -1.970942e-01 -1.811602e+00 151 105 31
-2.142046e-01 -1.977077e-01 -1.812982e+00 151 105 31
-2.289526e-01 -1.949578e-01 -1.817863e+00 95 45 3
-2.243044e-01 -1.940888e-01 -1.816824e+00 150 102 31
-1.695070e-01 -1.658191e-01 -1.802202e+00 135 40 2
-2.826891e-01 -1.317795e-01 -1.801679e+00 159 109 41
-3.758696e-01 -1.108176e-01 -1.848681e+00 105 60 2
-3.915115e-01 -1.095657e-01 -1.864046e+00 152 110 38
-6.916910e-02 -7.825828e-02 -1.776539e+00 139 80 24
-4.037129e-01 -5.628182e-02 -1.849647e+00 178 96 58
1.508695e-01 -6.148659e-01 -1.670145e+00 51 44 22
1.817935e-01 -5.374028e-01 -1.607169e+00 85 86 72
6.441057e-01 -5.421683e-01 -1.558715e+00 42 37 18
6.490442e-01 -5.365618e-01 -1.559495e+00 54 48 16
1.163938e-01 -4.680251e-01 -1.676226e+00 144 170 124
1.295616e-01 -4.509074e-01 -1.689004e+00 210 226 161
1.595598e-01 -4.490869e-01 -1.677780e+00 170 198 143
1.151160e-01 -4.513400e-01 -1.691031e+00 27 104 19
1.841787e-01 -4.487685e-01 -1.680573e+00 21 65 6
1.597880e-01 -4.417817e-01 -1.682978e+00 171 193 134
3.305519e-01 -4.408263e-01 -1.653682e+00 64 62 50
1.998861e-01 -4.290456e-01 -1.679453e+00 45 84 26
2.038084e-01 -4.242704e-01 -1.676313e+00 51 65 10
2.205615e-01 -4.249307e-01 -1.678720e+00 54 72 12
2.200866e-01 -4.186139e-01 -1.679244e+00 143 104 55
3.080896e-01 -3.943625e-01 -1.678737e+00 124 101 69
3.457754e-01 -3.846872e-01 -1.710534e+00 21 17 6
-7.492698e-02 -3.654955e-01 -1.867329e+00 122 36 18
8.557521e-02 -3.593621e-01 -1.916837e+00 94 19 11
-1.680526e-01 -2.907339e-01 -1.829582e+00 167 69 42
-1.652695e-01 -2.919534e-01 -1.839667e+00 167 69 42
-2.303848e-01 -2.258167e-01 -1.823934e+00 148 97 18
-1.939346e-01 -1.899334e-01 -1.798630e+00 128 56 16
-2.262957e-01 -1.131286e-01 -1.775069e+00 152 99 34
1.790568e+00 1.091770e+00 -1.959195e+00 11 12 7
1.120147e-01 -3.651629e-01 -1.743230e+00 22 17 11
-3.913504e-01 -7.513823e-01 -1.886913e+00 25 79 30
-3.913504e-01 -7.513823e-01 -1.886913e+00 25 79 30
1.002393e-01 -4.369470e-01 -1.759540e+00 14 9 3
2.519555e-01 -4.516019e-01 -1.678515e+00 6 6 4
-1.127179e-01 -5.963345e-01 -1.759748e+00 20 82 17
-4.647729e-01 1.052086e-01 -1.903211e+00 183 168 127
-2.192233e-02 1.945602e-01 -1.727029e+00 98 83 77
-6.084822e-02 -5.830670e-01 -1.766479e+00 18 78 18
-4.290283e-01 -7.175963e-01 -1.842611e+00 180 167 127
-2.864328e-01 -7.088756e-01 -1.854265e+00 32 82 28
-2.864328e-01 -7.088756e-01 -1.854265e+00 32 82 28
-3.930824e-01 -6.960123e-01 -1.838374e+00 19 78 24
-2.390555e-01 -6.791575e-01 -1.801605e+00 160 143 99
-1.918372e-01 -6.734423e-01 -1.818561e+00 170 153 108
6.576570e-01 -5.161613e-01 -1.575764e+00 178 164 125
6.329675e-02 -4.516629e-01 -1.886309e+00 23 3 0
-1.455660e-01 -6.469040e-01 -1.800939e+00 175 157 110
-9.825749e-02 -6.237189e-01 -1.787605e+00 179 159 110
-1.919757e-01 -6.036629e-01 -1.794746e+00 38 91 40
-1.741098e-01 -6.007003e-01 -1.800858e+00 29 83 27
-1.292276e-01 -5.731503e-01 -1.775234e+00 25 77 21
1.240603e-02 -5.113312e-01 -1.746973e+00 18 67 12
4.322575e-02 -4.239117e-01 -1.761639e+00 14 9 0
-2.336616e-01 -1.945737e-01 -1.813020e+00 101 58 19
-1.481444e-01 -6.090533e-01 -1.783554e+00 135 145 97
-1.024442e-01 -5.839748e-01 -1.764278e+00 122 138 87
-5.593846e-03 -5.772796e-01 -1.760218e+00 174 156 107
-3.456716e-02 -5.700480e-01 -1.757869e+00 166 177 120
1.427709e-01 -4.567133e-01 -1.702895e+00 195 204 149
-8.959714e-02 -3.639982e-01 -1.836656e+00 63 13 6
-2.610083e-01 -2.977532e-01 -1.830706e+00 96 46 10
-1.221756e-01 -1.645214e-01 -1.774486e+00 124 71 64
-7.116839e-02 -1.545697e-01 -1.763383e+00 63 20 3
-1.335170e-01 -9.235717e-02 -1.770617e+00 82 53 32
-1.335170e-01 -9.235717e-02 -1.770617e+00 82 53 32
-3.752573e-01 -9.143933e-02 -1.844017e+00 83 35 0
-9.364242e-02 -8.584261e-02 -1.764573e+00 60 24 9
-1.650535e-01 -7.852738e-02 -1.767159e+00 91 43 23
-3.616827e-01 -5.780774e-02 -1.828169e+00 143 68 36
1.606700e+00 6.848310e-01 -1.831714e+00 15 15 2
2.762025e-01 -7.656659e-01 -1.691662e+00 22 19 1
1.753083e-01 -6.674623e-01 -1.619299e+00 90 84 56
2.772568e-01 -6.272807e-01 -1.618968e+00 71 67 44
3.550610e-01 -5.953134e-01 -1.618909e+00 59 57 44
4.359474e-01 -5.419785e-01 -1.600958e+00 74 73 53
4.294960e-01 -5.402449e-01 -1.596681e+00 74 73 53
6.320498e-02 -5.331324e-01 -1.733108e+00 34 48 13
-2.589414e-02 -5.390814e-01 -1.759288e+00 180 200 128
6.273451e-01 -4.908499e-01 -1.586729e+00 187 174 130
5.297972e-01 -3.896766e-01 -1.633841e+00 187 174 131
-3.345071e-01 -4.144358e-01 -1.888453e+00 95 42 5
-3.345071e-01 -4.144358e-01 -1.888453e+00 95 42 5
-8.004334e-02 -3.567884e-01 -1.807361e+00 59 1 2
-8.710778e-02 -3.530247e-01 -1.806626e+00 119 32 13
-5.572368e-02 -3.358719e-01 -1.801752e+00 63 2 2
-8.513157e-02 -2.947519e-01 -1.821673e+00 54 7 4
-8.530335e-02 -2.947207e-01 -1.819791e+00 54 7 4
-1.211645e-01 -2.929044e-01 -1.800700e+00 120 32 14
4.266646e-01 -2.547182e-01 -1.736085e+00 18 12 1
-2.967794e-01 -2.145462e-01 -1.840310e+00 134 82 17
-3.533746e-01 -2.150253e-01 -1.870455e+00 142 97 29
-3.448687e-01 -2.043157e-01 -1.857635e+00 134 85 26
-3.192259e-01 -1.944452e-01 -1.849182e+00 138 90 22
-3.188875e-01 -1.948171e-01 -1.843557e+00 138 90 22
-2.923669e-02 -1.549492e-01 -1.799140e+00 65 23 7
-4.642617e-02 -1.221547e-01 -1.773660e+00 86 40 16
-1.456158e-01 -1.282009e-01 -1.779911e+00 116 72 44
-1.456158e-01 -1.282009e-01 -1.779911e+00 116 72 44
-4.311733e-01 -9.642035e-02 -1.899083e+00 127 87 41
-2.266901e-02 -8.070995e-02 -1.761623e+00 80 30 0
-3.285099e-01 -9.295252e-02 -1.805724e+00 125 34 7
-3.707244e-01 -7.838795e-02 -1.837416e+00 127 37 10
3.617694e-02 1.033604e-01 -1.751243e+00 199 183 142
-1.129877e-01 1.988505e-01 -1.777304e+00 54 42 56
-9.245834e-02 2.003455e-01 -1.769254e+00 55 39 54
-2.257086e-01 2.060719e-01 -1.812692e+00 52 41 58
-1.557179e-01 2.184789e-01 -1.799809e+00 97 82 88
-1.553413e-01 2.202181e-01 -1.803306e+00 97 82 88
-4.163861e-01 -7.132985e-01 -1.837839e+00 38 92 5
-3.588108e-01 -6.984121e-01 -1.850531e+00 173 200 144
-2.213074e-01 -3.335338e-01 -1.173720e+00 42 52 4
-1.648414e-01 -6.371907e-01 -1.800772e+00 28 71 2
6.796103e-01 -5.662494e-01 -1.567154e+00 175 166 112
-2.261521e-01 -3.087258e-01 -1.128836e+00 168 194 134
6.695183e-01 -5.556170e-01 -1.559940e+00 177 169 121
4.762561e-01 -5.093785e-01 -1.583488e+00 73 72 50
4.774820e-01 -5.097948e-01 -1.584311e+00 73 72 50
4.859792e-02 -4.568724e-01 -1.832306e+00 139 107 77
-3.294046e-01 -4.470015e-01 -1.899834e+00 100 50 15
-3.389244e-01 -4.430823e-01 -1.904701e+00 93 40 6
-3.389244e-01 -4.430823e-01 -1.904701e+00 93 40 6
-2.382451e-02 -4.256986e-01 -1.825566e+00 65 2 2
-3.344779e-01 -4.291686e-01 -1.895979e+00 95 41 3
-3.344779e-01 -4.291686e-01 -1.895979e+00 95 41 3
-2.486360e-01 -4.162180e-01 -1.856555e+00 89 24 0
-3.465853e-01 -4.218899e-01 -1.897291e+00 87 35 0
-2.285305e-01 -4.119772e-01 -1.849031e+00 133 69 28
-3.584749e-01 -4.044408e-01 -1.901517e+00 96 46 4
-3.584749e-01 -4.044408e-01 -1.901517e+00 96 46 4
-1.969157e-01 -3.926782e-01 -1.838333e+00 136 73 20
-2.012367e-01 -3.646999e-01 -1.826491e+00 133 71 18
-1.999479e-01 -3.652804e-01 -1.836471e+00 133 71 18
-9.876703e-02 -3.349056e-01 -1.815683e+00 63 0 3
-3.163359e-04 -3.097887e-01 -1.810856e+00 112 36 24
-3.163359e-04 -3.097887e-01 -1.810856e+00 112 36 24
-1.994492e-01 -3.123369e-01 -1.825439e+00 95 28 1
-2.436268e-01 -3.135078e-01 -1.834400e+00 82 31 0
-2.433937e-01 -3.140567e-01 -1.836760e+00 82 31 0
-1.252656e-01 -2.979514e-01 -1.805587e+00 70 1 0
-6.977093e-02 -2.379131e-01 -1.777079e+00 142 56 36
-6.527374e-02 -2.373191e-01 -1.793651e+00 142 56 36
-1.920563e-02 -2.340251e-01 -1.786287e+00 139 50 32
-1.918263e-02 -2.340126e-01 -1.786324e+00 139 50 32
-3.473417e-01 -2.177385e-01 -1.856221e+00 139 93 29
-3.806695e-01 -2.122833e-01 -1.885835e+00 90 45 1
-3.806695e-01 -2.122833e-01 -1.885835e+00 90 45 1
-3.267809e-01 -2.089750e-01 -1.849242e+00 135 86 27
-3.414911e-01 -1.894501e-01 -1.847013e+00 140 95 27
-9.277939e-02 -1.662306e-01 -1.791092e+00 122 66 13
-3.619227e-01 -1.684840e-01 -1.858823e+00 143 95 30
-3.737016e-01 -1.649807e-01 -1.854184e+00 134 90 28
-3.702940e-01 -1.419475e-01 -1.855679e+00 100 58 1
-9.780573e-02 -1.272020e-01 -1.771406e+00 128 66 21
-1.534139e-01 -1.132771e-01 -1.779216e+00 68 17 5
-1.538545e-01 -1.142109e-01 -1.776642e+00 68 17 5
-3.905859e-01 -1.103456e-01 -1.859635e+00 139 100 33
-3.405162e-01 -8.702535e-02 -1.827562e+00 127 37 8
-1.039770e-01 -8.136774e-02 -1.765746e+00 128 77 28
-1.039770e-01 -8.136774e-02 -1.765746e+00 128 77 28
-3.467732e-01 -8.456540e-02 -1.831599e+00 124 36 6
-3.541284e-01 -8.505372e-02 -1.825030e+00 126 39 8
-1.559457e-01 -7.022698e-02 -1.761290e+00 146 88 22
-1.555975e-01 -7.010205e-02 -1.761604e+00 146 88 22
-4.508286e-01 -5.968828e-03 -1.933937e+00 132 93 47
-4.024073e-04 -2.245388e-02 -1.747143e+00 156 104 54
-4.024073e-04 -2.245388e-02 -1.747143e+00 156 104 54
-3.705436e-01 2.274969e-01 -1.851481e+00 56 44 52
1.473290e+00 6.631895e-01 -1.808462e+00 110 98 76
3.648513e-01 -8.085925e-01 -1.660897e+00 16 13 0
3.498246e-01 -7.856653e-01 -1.663881e+00 62 62 50
2.692083e-01 -7.608439e-01 -1.680071e+00 19 16 2
3.645694e-01 -7.150540e-01 -1.627027e+00 85 85 75
3.770520e-01 -7.237387e-01 -1.638058e+00 85 85 75
6.714683e-01 -7.133188e-01 -1.595095e+00 165 157 111
-4.321291e-01 -7.455482e-01 -1.877127e+00 160 149 104
-3.559954e-01 -7.376688e-01 -1.859273e+00 133 150 95
-3.559954e-01 -7.376688e-01 -1.859273e+00 133 150 95
-3.361920e-01 -7.226136e-01 -1.833962e+00 132 145 95
-4.276305e-01 -7.363883e-01 -1.872970e+00 205 217 154
6.692398e-01 -6.752338e-01 -1.592785e+00 70 68 47
-3.819246e-01 -7.133816e-01 -1.857321e+00 59 141 55
-2.773326e-01 -7.067930e-01 -1.840298e+00 49 68 9
2.933178e-01 -6.371131e-01 -1.636965e+00 72 67 48
2.538262e-01 -6.235206e-01 -1.650448e+00 51 51 43
2.455228e-01 -6.179171e-01 -1.641108e+00 51 51 43
-1.171879e-01 -6.201613e-01 -1.788259e+00 143 156 105
-2.306961e-01 -3.087690e-01 -1.127937e+00 190 177 146
2.601494e-01 -5.722796e-01 -1.641038e+00 91 91 79
-1.415213e-01 -5.977269e-01 -1.791568e+00 132 204 120
-1.419125e-01 -5.970648e-01 -1.789929e+00 132 204 120
-6.309490e-02 -5.615853e-01 -1.765941e+00 19 36 1
6.572208e-01 -5.221932e-01 -1.568030e+00 186 171 137
6.453096e-01 -5.176169e-01 -1.564644e+00 187 171 138
2.613593e-02 -5.537782e-01 -1.746880e+00 43 52 1
-3.090180e-03 -5.511503e-01 -1.750522e+00 24 70 20
1.494460e-01 -5.222610e-01 -1.734151e+00 19 14 3
3.081906e-02 -5.171772e-01 -1.740790e+00 34 47 4
-1.058339e-02 -5.145151e-01 -1.757868e+00 159 152 116
6.185974e-01 -4.838134e-01 -1.590051e+00 53 44 20
6.242055e-02 -4.862553e-01 -1.729286e+00 8 50 0
5.936678e-01 -4.601992e-01 -1.598568e+00 45 34 11
5.252126e-01 -4.440231e-01 -1.566150e+00 63 56 46
1.278946e-01 -4.663999e-01 -1.710850e+00 25 77 2
-1.840864e-01 -4.814557e-01 -1.848315e+00 152 83 44
-2.086386e-01 -4.784411e-01 -1.844773e+00 162 101 57
7.739813e-02 -4.739150e-01 -1.822562e+00 108 88 59
1.517585e-01 -4.451387e-01 -1.702100e+00 23 63 8
5.012268e-01 -4.183048e-01 -1.572222e+00 47 37 15
-8.545876e-02 -4.584552e-01 -1.834843e+00 71 3 1
2.137273e-01 -4.279641e-01 -1.687375e+00 28 40 2
-2.883781e-01 -4.570915e-01 -1.882669e+00 78 15 1
5.640916e-01 -4.160339e-01 -1.635162e+00 190 178 137
5.545054e-01 -4.149971e-01 -1.633163e+00 45 36 15
1.822981e-01 -4.187047e-01 -1.700066e+00 17 16 0
-3.146798e-01 -4.495276e-01 -1.891530e+00 82 28 0
-2.010172e-02 -4.322310e-01 -1.828432e+00 113 29 18
-2.090103e-01 -4.327009e-01 -1.846421e+00 138 76 29
-2.463933e-01 -4.344897e-01 -1.867151e+00 82 24 3
-3.509558e-01 -4.307363e-01 -1.907558e+00 139 86 32
-3.509558e-01 -4.307363e-01 -1.907558e+00 139 86 32
-3.690555e-01 -4.336908e-01 -1.925849e+00 160 97 51
-3.686118e-01 -4.329823e-01 -1.920808e+00 160 97 51
-3.201347e-01 -4.202171e-01 -1.886478e+00 82 19 1
-2.045838e-01 -4.114682e-01 -1.841889e+00 134 68 19
-1.927433e-01 -4.011835e-01 -1.836401e+00 101 32 4
-3.355563e-01 -4.090183e-01 -1.891615e+00 140 78 29
-2.060788e-01 -3.962969e-01 -1.837012e+00 134 71 23
-2.846206e-01 -3.994094e-01 -1.867379e+00 82 17 1
-3.660191e-01 -3.984856e-01 -1.905024e+00 95 40 0
-3.233844e-01 -3.988725e-01 -1.921528e+00 80 20 0
-3.089914e-01 -3.898900e-01 -1.879907e+00 139 77 32
-2.550608e-01 -3.849286e-01 -1.852354e+00 92 25 0
-2.271386e-01 -3.792817e-01 -1.840552e+00 61 3 0
-2.551816e-01 -3.755129e-01 -1.849159e+00 86 15 2
-2.552333e-01 -3.755107e-01 -1.848711e+00 86 15 2
-2.077604e-01 -3.693866e-01 -1.853514e+00 129 68 21
-2.053930e-01 -3.624335e-01 -1.829411e+00 65 5 0
-2.569986e-01 -3.616707e-01 -1.851040e+00 87 21 2
-2.569582e-01 -3.615455e-01 -1.851526e+00 87 21 2
-1.323008e-01 -3.537036e-01 -1.807793e+00 75 4 4
-3.239707e-01 -3.621310e-01 -1.876823e+00 86 21 0
-3.397243e-01 -3.575828e-01 -1.885064e+00 81 25 9
-2.175647e-01 -3.435972e-01 -1.830818e+00 141 81 35
-1.225991e-01 -3.395556e-01 -1.810476e+00 70 4 2
-1.225991e-01 -3.395556e-01 -1.810476e+00 70 4 2
-3.659135e-01 -3.463569e-01 -1.898394e+00 91 38 0
-2.597139e-01 -3.401672e-01 -1.844200e+00 89 18 2
-2.596198e-01 -3.402882e-01 -1.845248e+00 89 18 2
-3.674915e-01 -3.383805e-01 -1.899551e+00 143 91 26
-1.047281e-02 -3.263815e-01 -1.797005e+00 119 31 18
-1.586316e-02 -3.245446e-01 -1.813839e+00 59 0 0
6.820436e-02 -3.237442e-01 -1.823439e+00 22 10 4
-7.618741e-02 -3.073004e-01 -1.799405e+00 75 5 6
4.407379e-01 -2.884890e-01 -1.704144e+00 32 24 7
-8.001109e-02 -2.933156e-01 -1.792139e+00 63 1 1
-1.037970e-01 -2.836920e-01 -1.807700e+00 60 3 6
4.658892e-01 -2.645651e-01 -1.747787e+00 198 186 138
-1.995343e-03 -2.625791e-01 -1.834866e+00 113 34 24
4.510305e-01 -2.476465e-01 -1.764683e+00 192 177 146
-3.339296e-01 -2.714842e-01 -1.874704e+00 152 96 41
-3.355136e-01 -2.717017e-01 -1.891112e+00 152 96 41
-1.145314e-02 -2.572603e-01 -1.767786e+00 116 31 23
-3.848738e-01 -2.669196e-01 -1.891186e+00 164 106 55
-3.848738e-01 -2.669196e-01 -1.891186e+00 164 106 55
-2.262094e-01 -2.533184e-01 -1.818523e+00 83 27 4
-2.057137e-01 -2.469381e-01 -1.814486e+00 60 1 0
-3.857601e-01 -2.496565e-01 -1.882898e+00 165 107 55
-3.857601e-01 -2.496565e-01 -1.882898e+00 165 107 55
-2.261871e-01 -2.439823e-01 -1.815629e+00 77 16 1
-2.256812e-01 -2.433902e-01 -1.825124e+00 77 16 1
-2.117564e-01 -2.418772e-01 -1.820055e+00 148 96 48
-2.066738e-01 -2.313184e-01 -1.811348e+00 61 5 0
-2.651635e-01 -2.312117e-01 -1.832651e+00 134 87 25
-9.725579e-02 -2.205450e-01 -1.785556e+00 114 20 0
-2.202879e-01 -2.083639e-01 -1.803619e+00 91 36 2
-2.833368e-01 -2.076652e-01 -1.829353e+00 96 39 0
-1.004197e-02 -1.960619e-01 -1.776682e+00 135 48 29
-2.338848e-01 -2.027514e-01 -1.807154e+00 136 88 21
-4.222346e-01 -1.958128e-01 -1.910367e+00 134 95 51
-3.109843e-01 -1.949755e-01 -1.840966e+00 138 91 26
-3.019095e-01 -1.899414e-01 -1.833877e+00 81 37 0
-1.307511e-01 -1.804259e-01 -1.783301e+00 56 7 0
-3.300875e-01 -1.785371e-01 -1.845023e+00 136 90 25
-2.315450e-01 -1.612416e-01 -1.802232e+00 95 34 5
-3.834422e-01 -1.485123e-01 -1.862483e+00 109 61 2
-1.276182e-01 -1.394671e-01 -1.776934e+00 68 21 3
-2.507752e-01 -1.344002e-01 -1.802225e+00 67 16 2
-2.507708e-01 -1.347466e-01 -1.803310e+00 67 16 2
-3.991418e-02 -1.179300e-01 -1.765963e+00 70 8 0
-4.013343e-02 -1.178209e-01 -1.765293e+00 70 8 0
-1.576829e-01 -1.208338e-01 -1.778456e+00 133 77 18
-2.046143e-01 -1.043152e-01 -1.788080e+00 146 76 32
-1.768082e-01 -9.722098e-02 -1.782186e+00 119 37 7
-4.154111e-01 -9.911709e-02 -1.857321e+00 111 51 10
-2.753733e-01 -1.003833e-01 -1.794344e+00 124 33 3
-1.135578e-01 -9.315442e-02 -1.767292e+00 78 32 16
-1.251209e-01 -8.895286e-02 -1.770329e+00 58 17 0
-3.461246e-01 -9.065716e-02 -1.832188e+00 154 106 49
-1.777237e-01 -8.666485e-02 -1.781036e+00 120 34 4
-1.645868e-01 -7.260029e-02 -1.776628e+00 70 15 2
-3.591917e-01 -5.610910e-02 -1.831510e+00 154 76 43
-8.138903e-04 -3.595076e-02 -1.746031e+00 94 44 0
-2.855577e-03 -3.754139e-02 -1.741144e+00 94 44 0
-9.448330e-03 -2.893670e-02 -1.740199e+00 157 105 47
-3.092055e-01 4.226055e-02 -1.811876e+00 57 56 62
-1.130439e-01 1.823251e-01 -1.760230e+00 106 92 90
-8.427718e-02 2.048571e-01 -1.772308e+00 109 94 92
-8.487130e-02 2.026618e-01 -1.768562e+00 109 94 92
-3.098219e-01 2.202915e-01 -1.842243e+00 96 83 92
-3.299678e-01 2.268812e-01 -1.852829e+00 48 37 43
-9.691096e-02 2.171844e-01 -1.777144e+00 56 41 46
-9.691096e-02 2.171844e-01 -1.777144e+00 56 41 46
-3.511596e-01 2.315151e-01 -1.851330e+00 78 72 87
-3.511596e-01 2.315151e-01 -1.851330e+00 78 72 87
-4.502391e-01 2.383796e-01 -1.878935e+00 47 33 33
-4.476229e-01 2.312854e-01 -1.867303e+00 47 33 33
-1.071871e-01 2.644755e-01 -1.771397e+00 34 26 39
1.369222e+00 4.931674e-01 -1.653186e+00 126 114 93
2.730808e-01 -7.693137e-01 -1.666785e+00 47 41 17
2.910984e-01 -7.790141e-01 -1.685455e+00 81 75 58
-4.074215e-01 -7.616226e-01 -1.870898e+00 71 85 47
-4.048170e-01 -7.432622e-01 -1.844001e+00 166 175 132
-4.124617e-01 -7.394916e-01 -1.838559e+00 101 97 56
-4.215322e-01 -7.486202e-01 -1.866334e+00 89 90 41
-4.239281e-01 -7.466068e-01 -1.871208e+00 151 165 98
-3.598002e-01 -7.392437e-01 -1.857508e+00 65 80 42
-3.779372e-01 -7.376695e-01 -1.858757e+00 46 97 46
-3.897879e-01 -7.355462e-01 -1.864544e+00 41 95 46
-3.279551e-01 -7.265068e-01 -1.841446e+00 103 107 56
-3.104902e-01 -7.266266e-01 -1.848465e+00 118 117 66
-4.102242e-01 -7.204679e-01 -1.869731e+00 38 73 15
-3.853290e-01 -7.013384e-01 -1.834643e+00 47 93 2
2.778076e-01 -6.435215e-01 -1.634908e+00 33 28 8
-3.513904e-01 -6.995057e-01 -1.846796e+00 176 195 146
-3.514082e-01 -6.880764e-01 -1.825951e+00 75 109 61
-2.800308e-01 -6.916960e-01 -1.831186e+00 45 83 43
-2.662142e-01 -6.919721e-01 -1.832829e+00 158 171 126
2.103744e-01 -6.772087e-01 -1.730372e+00 25 17 2
-2.317761e-01 -3.107196e-01 -1.125305e+00 25 67 0
-2.915064e-01 -6.723089e-01 -1.814211e+00 176 195 153
-2.662535e-01 -6.817740e-01 -1.827369e+00 19 64 0
-3.076656e-01 -6.794415e-01 -1.837633e+00 57 93 48
-3.263781e-01 -6.700313e-01 -1.841678e+00 195 208 178
-2.310868e-01 -6.624291e-01 -1.817924e+00 43 64 14
1.915589e-01 -6.501437e-01 -1.729828e+00 36 27 10
-2.070732e-01 -6.276388e-01 -1.808496e+00 187 206 137
-2.070732e-01 -6.276388e-01 -1.808496e+00 187 206 137
3.690219e-01 -5.606107e-01 -1.591290e+00 54 52 41
-1.419307e-01 -6.150235e-01 -1.790494e+00 57 68 30
-1.293652e-01 -6.121532e-01 -1.788241e+00 11 51 0
-1.443122e-01 -6.118711e-01 -1.791249e+00 180 191 133
-9.048319e-02 -6.003921e-01 -1.777686e+00 45 84 37
2.333110e-01 -5.703073e-01 -1.666748e+00 69 69 59
1.559930e-01 -5.966935e-01 -1.752202e+00 35 28 10
-1.424309e-01 -5.915463e-01 -1.785499e+00 24 106 14
-1.408554e-01 -5.815181e-01 -1.793803e+00 75 93 55
-1.444187e-01 -5.792826e-01 -1.793396e+00 189 182 146
6.531356e-01 -5.309727e-01 -1.566247e+00 45 38 22
-4.750999e-02 -5.696508e-01 -1.764430e+00 50 66 23
-1.331930e-01 -5.748744e-01 -1.790118e+00 180 175 134
-5.846046e-02 -5.693163e-01 -1.767754e+00 43 76 30
-2.211452e-01 -3.016520e-01 -1.115393e+00 149 172 115
-3.188368e-02 -5.536692e-01 -1.760439e+00 115 189 112
-5.420515e-02 -5.522013e-01 -1.761405e+00 49 134 45
-1.141136e-02 -5.473100e-01 -1.755773e+00 46 79 24
1.267602e-01 -5.579479e-01 -1.773465e+00 94 83 59
-2.257666e-02 -5.428376e-01 -1.757587e+00 41 81 30
1.511042e-03 -5.382487e-01 -1.747867e+00 25 73 1
8.078014e-02 -5.402013e-01 -1.747259e+00 99 93 53
-4.757323e-02 -5.350764e-01 -1.764864e+00 74 90 48
6.987431e-02 -5.306293e-01 -1.737036e+00 128 141 103
-1.310653e-02 -5.325563e-01 -1.754472e+00 28 91 5
2.307914e-01 -5.124319e-01 -1.680408e+00 44 43 38
6.359166e-02 -5.216223e-01 -1.732847e+00 21 65 0
-6.242615e-03 -5.160077e-01 -1.756590e+00 54 82 41
5.492320e-02 -5.071643e-01 -1.734246e+00 125 199 121
2.616283e-01 -4.909534e-01 -1.668563e+00 76 74 61
5.448012e-01 -4.664260e-01 -1.560847e+00 52 49 42
5.422913e-02 -4.905845e-01 -1.719462e+00 34 92 8
1.465565e-01 -4.874808e-01 -1.712594e+00 31 49 25
4.282312e-02 -4.902137e-01 -1.740528e+00 154 165 117
1.142429e-01 -4.686231e-01 -1.706235e+00 204 214 162
1.174133e-01 -4.639969e-01 -1.710363e+00 32 75 2
1.713558e-01 -4.589906e-01 -1.693712e+00 50 95 40
2.204581e-01 -4.604883e-01 -1.694610e+00 42 54 39
1.271745e-01 -4.606963e-01 -1.708772e+00 94 171 88
1.284117e-01 -4.613803e-01 -1.710699e+00 94 171 88
1.281989e-01 -4.613016e-01 -1.710346e+00 94 171 88
1.466407e-01 -4.554444e-01 -1.705187e+00 156 180 111
3.153005e-01 -4.459031e-01 -1.652826e+00 69 66 59
1.636690e-01 -4.517348e-01 -1.699924e+00 171 191 140
2.359710e-01 -4.492545e-01 -1.691543e+00 21 27 10
1.634543e-01 -4.458057e-01 -1.697343e+00 192 209 142
1.648173e-01 -4.465565e-01 -1.699261e+00 192 209 142
2.395570e-01 -4.439297e-01 -1.683696e+00 83 74 60
1.594046e-01 -4.453141e-01 -1.697595e+00 84 100 29
1.732141e-01 -4.449564e-01 -1.696971e+00 35 80 11
-2.728897e-01 -4.744684e-01 -1.862427e+00 158 104 61
1.566191e-01 -4.446966e-01 -1.702952e+00 183 209 134
1.306488e-01 -4.436976e-01 -1.708515e+00 186 202 149
2.257358e-01 -4.401809e-01 -1.685982e+00 33 64 15
2.257358e-01 -4.401809e-01 -1.685982e+00 33 64 15
1.574575e-01 -4.418670e-01 -1.706159e+00 9 52 0
-9.951655e-02 -4.569174e-01 -1.827938e+00 77 3 0
-2.430913e-01 -4.616931e-01 -1.866407e+00 149 90 40
-2.502209e-01 -4.616106e-01 -1.869420e+00 141 75 33
-7.229742e-02 -4.529723e-01 -1.827262e+00 125 49 38
2.219866e-01 -4.248933e-01 -1.680288e+00 49 67 10
-2.836896e-01 -4.566411e-01 -1.873068e+00 150 79 27
2.015264e-01 -4.222129e-01 -1.690325e+00 183 212 138
-4.622174e-02 -4.486573e-01 -1.836955e+00 74 1 1
3.700415e-01 -4.122795e-01 -1.638343e+00 62 59 50
2.154794e-01 -4.206119e-01 -1.690303e+00 47 77 14
-2.252638e-01 -4.425355e-01 -1.871889e+00 133 70 30
-2.211172e-01 -4.389532e-01 -1.855699e+00 74 9 1
4.440144e-01 -4.044370e-01 -1.640731e+00 82 79 70
4.444377e-01 -4.045771e-01 -1.641463e+00 82 79 70
5.805507e-02 -4.364266e-01 -1.841218e+00 104 71 39
-2.963336e-02 -4.280431e-01 -1.813213e+00 79 1 0
-3.124564e-01 -4.357856e-01 -1.884507e+00 86 27 0
5.258892e-01 -3.959453e-01 -1.629995e+00 73 69 33
3.916285e-01 -3.938634e-01 -1.628379e+00 69 66 57
-2.380417e-01 -4.300361e-01 -1.857513e+00 76 15 1
-4.055430e-01 -4.491225e-01 -1.973386e+00 106 55 14
-2.533964e-01 -4.287983e-01 -1.861355e+00 92 22 1
-2.534098e-01 -4.293423e-01 -1.863824e+00 92 22 1
-5.026401e-02 -4.141415e-01 -1.822780e+00 76 2 3
-2.145741e-01 -4.142642e-01 -1.835403e+00 94 30 1
-2.428752e-01 -4.181780e-01 -1.859846e+00 142 86 39
-5.443769e-02 -4.125292e-01 -1.823693e+00 115 32 19
-5.443769e-02 -4.125292e-01 -1.823693e+00 115 32 19
4.266454e-01 -3.826928e-01 -1.640196e+00 69 66 57
-2.281429e-01 -4.096334e-01 -1.849942e+00 127 67 34
-2.284538e-01 -4.088549e-01 -1.846280e+00 127 67 34
3.074917e-01 -3.808596e-01 -1.675820e+00 75 72 54
-2.390342e-01 -4.058717e-01 -1.850070e+00 77 19 3
-2.471194e-01 -4.016770e-01 -1.854302e+00 87 19 0
-2.278261e-01 -3.993460e-01 -1.845372e+00 128 58 22
-2.440061e-01 -3.912719e-01 -1.851164e+00 76 13 1
-2.539821e-01 -3.906796e-01 -1.852798e+00 90 21 0
-2.497258e-01 -3.866186e-01 -1.844398e+00 142 83 39
-2.039800e-01 -3.767899e-01 -1.830763e+00 71 5 3
-2.457244e-01 -3.763756e-01 -1.846983e+00 87 23 2
-2.456390e-01 -3.761205e-01 -1.845750e+00 87 23 2
-2.595652e-01 -3.751122e-01 -1.855615e+00 141 70 29
3.781158e-01 -3.475402e-01 -1.648929e+00 92 87 81
-3.653041e-01 -3.807780e-01 -1.906597e+00 139 88 34
-2.463577e-01 -3.712220e-01 -1.847614e+00 83 17 1
-2.463964e-01 -3.713071e-01 -1.847702e+00 83 17 1
-8.758287e-02 -3.585879e-01 -1.803799e+00 117 46 31
-2.250364e-01 -3.619648e-01 -1.834244e+00 142 86 48
-2.470724e-01 -3.615826e-01 -1.846010e+00 77 16 0
-2.525350e-01 -3.586194e-01 -1.847668e+00 143 85 40
-2.523897e-01 -3.585046e-01 -1.847164e+00 143 85 40
-1.140803e-01 -3.522341e-01 -1.813864e+00 78 4 2
-2.489799e-01 -3.562168e-01 -1.846699e+00 84 19 1
-3.698443e-01 -3.527233e-01 -1.887622e+00 102 46 0
-2.584633e-01 -3.464396e-01 -1.845728e+00 88 24 0
-2.137522e-01 -3.418686e-01 -1.827892e+00 80 18 6
-6.489913e-02 -3.359944e-01 -1.799298e+00 55 1 1
-1.891180e-01 -3.392150e-01 -1.821325e+00 126 75 22
-4.783730e-02 -3.329322e-01 -1.806933e+00 128 47 37
-4.777053e-02 -3.335444e-01 -1.806832e+00 128 47 37
-1.051508e-01 -3.350172e-01 -1.812025e+00 125 49 38
-9.566831e-02 -3.327886e-01 -1.806481e+00 125 46 34
-9.594489e-02 -3.323238e-01 -1.805055e+00 125 46 34
-1.702309e-01 -3.341308e-01 -1.814988e+00 123 39 13
5.310589e-02 -3.311952e-01 -1.808160e+00 25 9 1
-2.077346e-01 -3.327152e-01 -1.823863e+00 75 14 2
-8.651059e-02 -3.282838e-01 -1.803753e+00 63 4 2
-2.470704e-01 -3.293391e-01 -1.842503e+00 142 89 53
-2.669700e-01 -3.241668e-01 -1.845923e+00 93 35 4
-2.612744e-01 -3.163443e-01 -1.843194e+00 82 17 0
-2.613259e-01 -3.163076e-01 -1.844222e+00 82 17 0
-2.153067e-01 -3.135783e-01 -1.829706e+00 60 0 0
-2.408306e-01 -3.130425e-01 -1.834938e+00 86 34 1
-1.582807e-01 -3.078912e-01 -1.807425e+00 130 34 12
-2.519550e-01 -3.111049e-01 -1.835057e+00 87 27 4
-2.630005e-01 -3.105457e-01 -1.843151e+00 82 18 0
-2.337029e-01 -3.051861e-01 -1.830955e+00 64 8 0
-2.382646e-01 -3.054422e-01 -1.831376e+00 132 81 42
-2.384379e-01 -3.053275e-01 -1.829012e+00 132 81 42
-2.423627e-01 -3.045138e-01 -1.833999e+00 69 14 0
-2.170710e-01 -3.036025e-01 -1.827976e+00 73 10 0
-3.743014e-01 -3.086750e-01 -1.885014e+00 109 52 7
-1.399847e-01 -2.981187e-01 -1.826886e+00 104 20 1
-2.337100e-01 -2.987184e-01 -1.829422e+00 91 35 3
-1.540120e-01 -2.954941e-01 -1.839871e+00 107 29 3
-2.503672e-01 -2.957981e-01 -1.833835e+00 90 37 3
-2.503404e-01 -2.958205e-01 -1.833962e+00 90 37 3
-3.770423e-01 -2.999266e-01 -1.893691e+00 120 61 5
-1.626563e-01 -2.925653e-01 -1.839547e+00 111 28 2
-1.629541e-01 -2.924359e-01 -1.839096e+00 111 28 2
-1.130758e-02 -2.864802e-01 -1.837279e+00 78 0 0
-2.267545e-02 -2.867938e-01 -1.801825e+00 78 0 0
-3.029380e-02 -2.848572e-01 -1.790131e+00 115 34 27
-4.464633e-02 -2.828581e-01 -1.794919e+00 54 1 1
-1.008248e-01 -2.844225e-01 -1.790926e+00 60 2 1
-1.062996e-01 -2.806800e-01 -1.797506e+00 63 3 3
4.513924e-01 -2.598216e-01 -1.741799e+00 80 67 38
-3.784020e-01 -2.793012e-01 -1.884190e+00 110 52 4
-3.100229e-01 -2.727674e-01 -1.849236e+00 81 34 5
-3.240697e-01 -2.708952e-01 -1.856636e+00 149 92 40
-3.788463e-01 -2.674422e-01 -1.881234e+00 93 33 0
-3.805572e-01 -2.680484e-01 -1.891051e+00 93 33 0
-8.341363e-02 -2.555246e-01 -1.787740e+00 101 14 1
-2.146751e-01 -2.591580e-01 -1.819744e+00 72 17 3
-3.536877e-01 -2.611911e-01 -1.868720e+00 87 44 8
-1.423019e-01 -2.518845e-01 -1.797418e+00 115 24 0
-4.034862e-01 -2.523494e-01 -1.902339e+00 118 48 10
-2.294154e-01 -2.418079e-01 -1.818988e+00 129 74 18
-4.103233e-01 -2.443162e-01 -1.898801e+00 124 76 31
-3.640565e-01 -2.287754e-01 -1.867466e+00 142 98 35
-4.035172e-01 -2.269236e-01 -1.891526e+00 107 39 2
-3.206868e-01 -2.161192e-01 -1.846563e+00 78 37 2
-2.175412e-01 -2.135875e-01 -1.809112e+00 88 27 0
-4.317086e-02 -2.052960e-01 -1.779243e+00 106 16 0
-2.319172e-01 -2.092361e-01 -1.813198e+00 133 79 31
-3.276015e-01 -2.105887e-01 -1.849503e+00 136 90 35
-3.460604e-01 -2.101300e-01 -1.851487e+00 74 30 0
-3.016022e-01 -2.085293e-01 -1.835293e+00 99 40 1
-3.103759e-01 -2.061911e-01 -1.842649e+00 113 55 3
-3.067178e-01 -2.042774e-01 -1.833411e+00 148 93 30
-2.149115e-01 -1.964770e-01 -1.812615e+00 148 102 54
-2.149413e-01 -1.969822e-01 -1.810397e+00 148 102 54
-2.294519e-01 -1.967408e-01 -1.812443e+00 64 16 1
-3.249384e-01 -1.911861e-01 -1.845295e+00 139 92 39
-1.303936e-01 -1.853837e-01 -1.781242e+00 124 66 23
-1.390373e-01 -1.828713e-01 -1.791088e+00 83 25 2
-3.565592e-01 -1.880103e-01 -1.852784e+00 108 55 6
-3.569030e-01 -1.876918e-01 -1.856105e+00 108 55 6
-1.357906e-01 -1.823774e-01 -1.786140e+00 142 90 40
-1.301723e-01 -1.772679e-01 -1.785848e+00 64 13 1
-3.222033e-01 -1.813800e-01 -1.839157e+00 138 91 34
-3.408080e-01 -1.808105e-01 -1.848061e+00 78 35 1
-1.408098e-01 -1.705660e-01 -1.782717e+00 84 28 6
-9.429834e-02 -1.585697e-01 -1.770473e+00 63 19 2
-1.724697e-02 -1.510245e-01 -1.774261e+00 49 2 1
-1.993564e-01 -1.597517e-01 -1.797573e+00 169 114 70
-3.130366e-01 -1.567644e-01 -1.834190e+00 97 50 1
-3.691821e-01 -1.573669e-01 -1.856770e+00 142 91 35
-3.691808e-01 -1.573525e-01 -1.856359e+00 142 91 35
-7.147760e-02 -1.517261e-01 -1.764917e+00 71 21 7
-7.147760e-02 -1.517261e-01 -1.764917e+00 71 21 7
-2.229240e-01 -1.518411e-01 -1.801399e+00 81 21 2
-2.339184e-01 -1.517315e-01 -1.805681e+00 76 11 3
-2.340110e-01 -1.523657e-01 -1.800999e+00 76 11 3
-3.603255e-01 -1.499547e-01 -1.853354e+00 96 48 1
-2.183595e-01 -1.489169e-01 -1.802799e+00 147 94 47
-2.333105e-01 -1.470513e-01 -1.796248e+00 79 18 0
-2.003235e-01 -1.429696e-01 -1.795751e+00 163 105 52
-2.430154e-01 -1.342800e-01 -1.806770e+00 77 26 2
-2.817320e-01 -1.308458e-01 -1.819527e+00 151 100 52
-6.347961e-02 -1.264750e-01 -1.759075e+00 67 16 6
-1.605431e-01 -1.298086e-01 -1.780986e+00 64 5 1
-3.732538e-01 -1.302787e-01 -1.851183e+00 81 36 0
-2.452265e-01 -1.284049e-01 -1.808138e+00 77 21 1
-2.958838e-01 -1.284480e-01 -1.820271e+00 145 97 48
-2.717712e-01 -1.303114e-01 -1.802527e+00 88 35 3
-3.325333e-01 -1.272754e-01 -1.835768e+00 75 28 0
-3.020041e-01 -1.268859e-01 -1.825168e+00 149 97 53
-3.020231e-01 -1.268153e-01 -1.825442e+00 149 97 53
-4.299854e-01 -1.201069e-01 -1.897710e+00 135 102 55
-3.598904e-01 -1.197341e-01 -1.846712e+00 107 60 3
-2.008101e-01 -1.171574e-01 -1.790726e+00 161 88 46
-2.334641e-01 -1.161281e-01 -1.799343e+00 71 20 0
-5.587033e-02 -1.083060e-01 -1.761114e+00 68 7 0
-2.214293e-01 -1.124532e-01 -1.796829e+00 145 92 52
-3.651148e-01 -1.090775e-01 -1.854614e+00 96 49 0
-2.340941e-01 -1.083177e-01 -1.799550e+00 75 27 1
-5.669099e-02 -7.963883e-02 -1.758849e+00 63 14 0
-1.612653e-01 -8.165979e-02 -1.772287e+00 120 71 30
-6.080193e-02 -7.338607e-02 -1.759221e+00 132 82 40
-6.082035e-02 -7.322404e-02 -1.759073e+00 132 82 40
-3.743204e-01 -7.229302e-02 -1.838096e+00 159 80 50
-1.583221e-02 -5.885294e-02 -1.754123e+00 79 40 3
-4.235107e-01 -5.371926e-02 -1.874037e+00 108 47 6
-1.390057e-01 1.198248e-02 -1.783980e+00 177 98 58
-1.718377e-01 3.192684e-02 -1.770751e+00 31 26 32
-1.549694e-01 3.709790e-02 -1.764136e+00 11 7 12
-4.503603e-01 9.790216e-02 -1.895844e+00 116 88 38
-1.694068e-01 1.962409e-01 -1.789068e+00 105 93 102
-3.043627e-01 2.086663e-01 -1.823629e+00 48 36 48
2.457120e-02 2.081727e-01 -1.738412e+00 126 115 96
-1.951934e-01 2.289486e-01 -1.818537e+00 94 80 83
1.630204e-02 2.120845e-01 -1.730700e+00 106 90 83
2.325285e-02 2.281917e-01 -1.742897e+00 109 92 78
1.487852e-02 2.264686e-01 -1.729366e+00 98 82 58
-4.387537e-01 2.781098e-01 -1.895973e+00 51 38 22
-1.304925e-01 3.219765e-01 -1.836865e+00 61 47 37
-6.144061e-03 -1.778729e-01 -1.800760e+00 106 15 0
-3.652151e-01 -1.932331e-01 -1.847563e+00 103 47 1
1.625582e+00 6.923867e-01 -1.818668e+00 71 57 38
-4.734786e-02 -5.828430e-01 -1.766094e+00 42 83 28
-9.726026e-02 -6.242891e-01 -1.787290e+00 177 154 110
-1.341660e-01 -6.141734e-01 -1.785838e+00 177 196 137
1.000872e-01 -5.024341e-01 -1.723959e+00 150 174 114
-1.066976e-01 -2.028670e-01 -1.802557e+00 133 22 7
-4.191829e-01 -7.024357e-01 -1.833512e+00 25 76 17
5.108272e-02 -4.802649e-01 -1.715761e+00 18 71 8
-2.337344e-01 -1.946983e-01 -1.813138e+00 102 55 26
-2.416413e-01 -6.506473e-01 -1.804055e+00 133 142 97
4.218976e-01 -5.442975e-01 -1.597645e+00 72 70 55
-3.251497e-02 -1.413872e-01 -1.779675e+00 54 13 0
2.640719e-01 -7.536126e-01 -1.678268e+00 23 19 4
-2.341846e-01 -3.682487e-01 -1.843548e+00 130 72 22
-2.341591e-01 -3.681523e-01 -1.843173e+00 130 72 22
-9.199652e-02 -3.468738e-01 -1.806508e+00 59 16 11
-2.381401e-01 -3.232920e-01 -1.839317e+00 141 81 27
-2.381401e-01 -3.232920e-01 -1.839317e+00 141 81 27
-2.316560e-02 -3.100197e-01 -1.793569e+00 60 1 0
-2.473118e-01 -3.081827e-01 -1.837642e+00 141 83 26
