ply
format ascii 1.0
element face 0
property list uchar int vertex_indices
element vertex 944
property float x
property float y
property float z
property uchar diffuse_red
property uchar diffuse_green
property uchar diffuse_blue
end_header
-3.972280e-01 -2.584798e-02 -2.428424e+00 162 113 52
-9.021461e-01 2.400165e-01 -2.524088e+00 87 44 0
9.194773e-01 -1.378495e+00 -1.868982e+00 46 35 13
1.080048e+00 -1.064170e+00 -1.684456e+00 106 102 82
4.662150e-01 -9.197648e-01 -1.998794e+00 57 98 37
8.522354e-01 -8.179060e-01 -1.991968e+00 28 75 8
1.139454e+00 -7.533846e-01 -2.002021e+00 178 173 128
1.161231e+00 -7.353830e-01 -2.013828e+00 116 88 44
1.126357e+00 -7.345392e-01 -2.015700e+00 69 84 29
1.110306e+00 -6.918624e-01 -2.045447e+00 37 65 2
1.109323e+00 -6.834287e-01 -2.060125e+00 140 153 89
1.423665e+00 -6.347230e-01 -2.080621e+00 73 58 20
5.852504e-01 -6.540694e-01 -2.719172e+00 25 2 0
5.083670e-02 -5.106763e-01 -2.481623e+00 88 1 4
-9.718910e-01 -4.123109e-02 -2.605467e+00 120 72 9
-5.647206e-01 1.859639e-01 -2.422598e+00 72 17 8
-5.563128e-01 2.013813e-01 -2.416505e+00 167 109 41
1.049957e+00 -7.317889e-01 -2.021542e+00 214 228 156
7.142333e-01 -9.630222e-01 -1.968674e+00 115 132 90
-4.932572e-01 -7.928404e-01 -2.476500e+00 154 86 22
-3.756876e-01 -1.294986e-01 -2.422836e+00 89 34 6
1.085358e+00 -7.183480e-01 -2.028239e+00 44 80 1
2.073362e+00 -8.374226e-01 -1.661489e+00 85 82 73
1.388121e+00 -8.231990e-01 -1.941750e+00 58 56 44
-1.944355e-01 -3.709543e-02 -2.443941e+00 180 103 44
-4.421339e-01 -1.698398e-02 -2.429491e+00 93 35 1
8.802153e-01 -7.934983e-01 -2.004234e+00 207 224 153
-9.131900e-01 -2.667056e-01 -2.583525e+00 110 62 11
-8.019079e-01 -1.507177e-01 -2.515998e+00 94 46 3
-1.546677e-02 -5.278113e-01 -2.459847e+00 83 3 0
-9.155656e-01 3.390144e-01 -2.524395e+00 180 135 70
2.585271e+00 -9.578639e-01 -1.908778e+00 203 191 143
1.683259e+00 -1.465361e-01 -2.906285e+00 225 217 193
1.505146e-01 -1.057728e+00 -1.912396e+00 47 153 46
9.426839e-01 -8.098205e-01 -1.983992e+00 182 195 140
1.060266e-01 3.589858e-01 -2.438877e+00 94 51 30
1.060266e-01 3.589858e-01 -2.438877e+00 94 51 30
6.889029e-01 -8.503591e-01 -1.999353e+00 15 86 10
-7.143943e-02 -5.855784e-01 -2.454394e+00 87 13 7
1.599104e-01 -6.045142e-01 -2.507222e+00 70 0 0
1.813257e-01 -5.865966e-01 -2.515392e+00 138 36 14
-4.844576e-01 -5.295575e-01 -2.469567e+00 151 87 20
-4.877700e-02 2.691759e-01 -2.405971e+00 93 35 15
1.964309e-01 -7.976995e-01 -2.539305e+00 86 0 0
2.252942e-01 -5.769910e-01 -2.541518e+00 133 34 13
7.724710e-01 -8.268140e-01 -1.986852e+00 93 176 76
1.175990e+00 -9.058515e-01 -1.880323e+00 28 26 11
1.494605e+00 -7.781443e-01 -1.962413e+00 63 61 48
-2.363281e-01 -4.360396e-01 -2.476783e+00 150 37 3
-3.595752e-01 -1.548703e-01 -2.417344e+00 165 113 33
-6.812740e-02 -5.926177e-01 -2.470953e+00 87 13 7
-4.155520e-01 -8.796166e-01 -2.476149e+00 98 39 4
2.625275e-01 -9.066775e-01 -2.567790e+00 78 0 0
1.078327e+00 -7.357099e-01 -2.007901e+00 64 82 19
-1.814316e+00 3.261140e-01 -2.948133e+00 209 191 155
-6.760585e-01 -8.403903e-01 -2.374149e+00 158 85 16
1.323997e+00 -3.532729e-01 -2.326382e+00 31 29 17
-9.146440e-01 -4.508150e-02 -2.620406e+00 126 69 5
4.470716e-01 -1.329786e+00 -2.063459e+00 182 162 125
4.492403e-01 -1.334509e+00 -2.068854e+00 182 162 125
2.437277e+00 -1.078773e+00 -1.657478e+00 19 18 13
7.847495e+00 2.689594e+00 -5.518822e+00 128 112 79
-2.247244e-01 -1.409760e+00 -2.093632e+00 18 113 20
-6.386848e-02 -1.299409e+00 -2.043822e+00 17 116 20
2.249235e+00 -8.328164e-01 -1.894438e+00 28 26 17
4.217936e-01 3.759724e-01 -2.491659e+00 122 70 12
4.139853e-01 6.427371e-01 -2.500846e+00 156 60 23
6.231312e-01 -3.485306e-01 -2.556206e+00 204 185 147
2.217717e-01 1.276224e+00 -2.577364e+00 113 96 86
2.491090e+00 -1.337836e+00 -1.666913e+00 38 36 24
3.469447e-01 -1.155520e+00 -2.322488e+00 174 148 111
7.507766e-01 -7.976707e-01 -2.077539e+00 16 11 5
5.468284e-01 9.661161e-01 -2.572908e+00 209 191 153
-1.219205e-02 -1.352255e+00 -2.068964e+00 22 98 18
1.567496e-01 -1.303556e+00 -2.101529e+00 25 99 20
3.078058e-01 -1.189069e+00 -2.044691e+00 24 96 22
1.974870e-01 -1.132403e+00 -2.178937e+00 187 161 116
2.356740e+00 -8.979220e-01 -1.782344e+00 18 18 13
6.216599e-01 -1.116936e+00 -2.438574e+00 122 104 68
1.079770e+00 -6.685322e-01 -2.089369e+00 34 32 19
-1.028405e+00 -9.154852e-01 -2.701514e+00 145 67 28
1.689554e+00 -1.865721e-01 -2.380217e+00 204 186 148
2.052687e-01 6.924506e-01 -2.479835e+00 182 66 19
-8.144164e-01 -1.660779e+00 -2.033214e+00 15 106 21
-6.545861e-01 -1.615109e+00 -2.053472e+00 18 103 21
-4.935252e-01 -1.553126e+00 -2.058724e+00 21 101 18
2.522342e+00 -1.108883e+00 -1.632660e+00 194 179 140
-1.820285e-02 -1.304210e+00 -2.014256e+00 20 100 18
7.043987e-01 -1.058035e+00 -2.036651e+00 33 42 17
8.465841e-01 -9.894023e-01 -2.045032e+00 20 39 14
1.013663e+00 -9.136147e-01 -2.027389e+00 0 6 1
5.437916e-01 -9.387265e-01 -2.481499e+00 148 126 86
1.400324e+00 -6.416273e-01 -2.152218e+00 17 15 6
3.615313e-01 1.582207e-01 -2.488871e+00 137 76 18
3.326673e-02 4.252106e-01 -2.449709e+00 150 88 3
4.981486e-01 8.157114e-01 -2.569847e+00 148 27 2
7.732020e+00 2.509458e+00 -4.163894e+00 25 22 15
6.358563e+00 2.223210e+00 -3.422661e+00 141 124 96
-4.463930e-01 -1.560594e+00 -2.067510e+00 40 101 27
-2.852076e-01 -1.527117e+00 -2.110079e+00 45 102 31
-1.256882e-01 -1.421784e+00 -2.069928e+00 42 98 25
3.652562e-02 -1.362209e+00 -2.085971e+00 48 102 30
-1.771658e-01 -1.288971e+00 -2.073099e+00 21 98 17
1.978636e-01 -1.295377e+00 -2.090753e+00 45 100 29
3.521878e-01 -1.194709e+00 -2.054063e+00 42 92 26
3.098990e-01 -1.072553e+00 -2.071802e+00 15 91 10
1.370037e+00 -6.105150e-01 -2.082331e+00 18 12 4
-1.414100e-01 7.111840e-01 -2.543032e+00 85 9 2
-1.131639e+00 7.759503e-01 -2.720364e+00 147 59 14
-1.120863e+00 9.402573e-01 -2.707438e+00 50 39 50
-3.245365e-01 1.283904e+00 -2.686272e+00 77 68 87
-9.957571e-01 -1.691690e+00 -2.125025e+00 25 98 26
-5.777552e-01 -1.619354e+00 -2.051913e+00 57 100 36
-5.753166e-01 -1.564909e+00 -2.040414e+00 165 186 122
-4.313657e-01 -1.578016e+00 -2.084784e+00 57 103 32
-1.389869e-01 -1.469014e+00 -2.057433e+00 194 171 129
-3.463058e-01 -1.330977e+00 -2.035955e+00 27 103 25
3.396678e-01 -1.248660e+00 -2.050547e+00 191 170 127
-3.004801e-02 -1.216942e+00 -2.068066e+00 24 98 22
1.326180e-01 -1.173008e+00 -2.107176e+00 28 101 27
4.783677e-01 -1.031535e+00 -2.117031e+00 19 96 12
8.509603e-01 -9.164441e-01 -2.024813e+00 163 180 125
1.002098e+00 -8.380707e-01 -2.014848e+00 142 162 108
4.406975e-01 -8.979669e-01 -2.453065e+00 28 3 1
-1.840607e-01 -3.905040e-01 -2.431588e+00 183 108 70
-3.065314e-01 7.486674e-02 -2.403767e+00 190 133 83
-1.165667e-01 1.267192e+00 -2.644657e+00 92 79 102
-2.221928e-01 1.262012e+00 -2.641343e+00 62 51 73
6.474088e+00 3.094188e+00 -4.737976e+00 15 13 2
1.517696e+00 -1.772733e+00 -1.680323e+00 80 76 47
-1.010863e+00 -1.837705e+00 -2.060734e+00 57 73 19
1.240392e+00 -1.420301e+00 -1.643496e+00 62 63 42
-1.069944e+00 -1.676688e+00 -2.058060e+00 34 93 23
-9.776878e-01 -1.626843e+00 -2.013357e+00 165 183 123
-9.891345e-01 -1.657510e+00 -2.045732e+00 165 183 123
-9.756488e-01 -1.643094e+00 -2.068964e+00 26 98 27
-7.617048e-01 -1.552872e+00 -1.977813e+00 205 219 162
-9.195517e-01 -1.618566e+00 -2.074709e+00 28 97 37
-8.447784e-01 -1.630173e+00 -2.134173e+00 25 98 25
-6.261488e-01 -1.569750e+00 -2.066641e+00 194 208 150
1.031174e+00 -1.531127e+00 -1.938782e+00 42 36 19
-4.206681e-01 -1.581943e+00 -2.090339e+00 58 97 32
-2.960397e-01 -1.396809e+00 -2.153749e+00 37 106 45
1.776106e-01 -1.336613e+00 -2.075374e+00 190 173 123
1.219410e-02 -1.262242e+00 -2.035044e+00 202 213 158
-1.358755e-01 -1.276102e+00 -2.087600e+00 26 97 27
3.365119e-01 -1.246954e+00 -2.053131e+00 189 170 122
-7.484997e-02 -1.271005e+00 -2.115889e+00 33 98 31
2.140623e-01 -1.200234e+00 -2.026084e+00 171 192 131
1.694770e-01 -1.184941e+00 -2.024085e+00 189 203 143
2.641507e-02 -1.225939e+00 -2.118564e+00 28 102 31
3.973693e-01 -1.191679e+00 -2.057674e+00 58 83 31
3.751194e-01 -1.132508e+00 -2.031515e+00 165 182 127
3.316119e-01 -1.120625e+00 -2.032708e+00 195 206 149
7.033696e-01 -1.164179e+00 -2.149254e+00 119 107 66
2.381103e-01 -1.088704e+00 -2.058207e+00 39 98 28
5.329923e-01 -1.058077e+00 -2.023894e+00 164 186 127
5.320896e-01 -1.055847e+00 -2.020497e+00 164 186 127
4.893455e-01 -1.048544e+00 -2.029038e+00 196 210 149
7.224673e-01 -1.022682e+00 -2.020464e+00 23 43 17
4.536172e-01 -1.014332e+00 -2.078054e+00 21 95 13
6.551264e-01 -9.841225e-01 -2.038546e+00 199 207 152
2.386647e+00 -8.477387e-01 -1.878578e+00 38 30 15
8.642801e-01 -8.090414e-01 -2.040267e+00 22 95 14
-3.330902e-01 -9.355446e-01 -2.375726e+00 144 80 36
3.598418e-01 -8.907558e-01 -2.364703e+00 16 6 7
3.598418e-01 -8.907558e-01 -2.364703e+00 16 6 7
2.182908e+00 -6.576021e-01 -2.067771e+00 39 32 15
3.917538e-01 7.331136e-02 -2.466431e+00 138 21 3
-3.258233e-01 2.733158e-01 -2.412313e+00 152 87 8
-1.528383e-01 3.515573e-01 -2.375694e+00 144 86 5
-4.185960e-02 3.617474e-01 -2.399434e+00 140 82 6
-1.122709e+00 7.674170e-01 -2.657278e+00 142 65 17
-6.291966e-01 1.285537e+00 -2.703113e+00 63 50 77
-7.094618e-01 1.294593e+00 -2.714948e+00 64 51 75
-8.492522e-01 1.314501e+00 -2.743524e+00 68 53 76
-7.695181e-01 1.323458e+00 -2.744931e+00 63 51 75
6.825878e+00 2.455842e+00 -3.668453e+00 30 20 13
5.014746e+00 2.899244e+00 -4.124499e+00 138 123 96
1.275899e+00 -1.787171e+00 -1.689857e+00 28 22 9
-1.018668e+00 -1.648330e+00 -2.056690e+00 34 88 26
1.250128e+00 -1.329033e+00 -1.657321e+00 21 15 2
-6.759340e-01 -1.491464e+00 -2.016249e+00 198 219 152
-7.201890e-01 -1.554156e+00 -2.109907e+00 34 86 23
1.511398e+00 -1.194864e+00 -1.675216e+00 69 67 53
1.520149e+00 -1.202310e+00 -1.684283e+00 69 67 53
1.733369e+00 -1.080488e+00 -1.703369e+00 83 81 56
1.750174e+00 -1.092242e+00 -1.718343e+00 83 81 56
-5.216858e-02 -1.255264e+00 -2.064480e+00 211 230 161
-5.384548e-02 -1.237785e+00 -2.041697e+00 211 230 161
1.792274e+00 -1.065168e+00 -1.720290e+00 87 82 60
4.837808e-01 -1.158266e+00 -2.039711e+00 146 139 86
2.501566e+00 -9.928089e-01 -1.704426e+00 40 31 14
2.492477e+00 -9.892785e-01 -1.732113e+00 39 31 10
2.611783e-01 -1.096405e+00 -2.039477e+00 218 236 164
2.708536e-01 -1.127886e+00 -2.083337e+00 218 236 164
2.068669e+00 -8.715667e-01 -1.711112e+00 81 78 61
2.037107e+00 -8.565232e-01 -1.688305e+00 81 78 61
4.200112e-01 -1.023923e+00 -2.036185e+00 213 230 159
5.857166e-01 -9.619759e-01 -2.052464e+00 210 228 154
2.415155e+00 -8.610479e-01 -1.862368e+00 199 186 141
7.461309e-01 -8.878525e-01 -2.050625e+00 208 220 147
2.153516e+00 -7.074848e-01 -1.772199e+00 65 54 25
8.356211e-01 -8.325646e-01 -2.060783e+00 16 89 11
1.318427e+00 -6.269183e-01 -2.069877e+00 22 14 1
-4.258565e-01 -7.308893e-01 -2.375339e+00 96 36 7
-4.258565e-01 -7.308893e-01 -2.375339e+00 96 36 7
2.730381e-02 -5.862841e-01 -2.371681e+00 75 6 5
4.797472e-01 -5.180477e-01 -2.408320e+00 146 94 66
-2.014538e-01 -4.798549e-01 -2.377580e+00 162 86 47
-2.014093e-01 -4.810426e-01 -2.381803e+00 162 86 47
5.469109e-01 -4.678495e-01 -2.469585e+00 208 192 157
2.246072e-02 -3.689687e-01 -2.372451e+00 70 8 5
-6.123577e-01 -3.152521e-01 -2.424919e+00 96 51 11
-6.119531e-01 -3.147098e-01 -2.423648e+00 96 51 11
1.894057e+00 -2.898734e-01 -2.475616e+00 70 62 29
-8.607917e-01 -2.701233e-01 -2.506533e+00 103 59 14
-8.607917e-01 -2.701233e-01 -2.506533e+00 103 59 14
-5.407759e-02 -1.447626e-01 -2.404450e+00 151 56 20
-7.391781e-01 -1.544790e-01 -2.455206e+00 103 46 9
-6.718353e-01 -1.433886e-02 -2.459585e+00 100 59 0
-1.062084e+00 8.375233e-03 -2.597012e+00 145 91 44
-9.497612e-02 4.646855e-02 -2.370980e+00 152 88 17
-9.497612e-02 4.646855e-02 -2.370980e+00 152 88 17
-6.882863e-01 3.982784e-02 -2.464701e+00 122 62 4
1.229061e-01 1.051449e-01 -2.455774e+00 94 47 5
2.283854e-01 1.196880e-01 -2.418873e+00 137 77 10
-7.062311e-03 1.637651e-01 -2.414671e+00 114 58 39
1.244563e-01 1.888759e-01 -2.408720e+00 94 40 11
-8.569527e-01 1.768442e-01 -2.512478e+00 96 46 0
-8.569527e-01 1.768442e-01 -2.512478e+00 96 46 0
9.014006e-02 2.131251e-01 -2.400224e+00 139 79 6
9.014006e-02 2.131251e-01 -2.400224e+00 139 79 6
1.469396e-01 2.240581e-01 -2.435769e+00 139 79 8
1.469396e-01 2.240581e-01 -2.435769e+00 139 79 8
1.298525e-01 2.521437e-01 -2.381904e+00 83 28 1
-3.996727e-01 2.536316e-01 -2.412690e+00 98 44 11
-3.996727e-01 2.536316e-01 -2.412690e+00 98 44 11
-3.720879e-01 2.796374e-01 -2.421387e+00 164 110 29
-7.633782e-02 2.920437e-01 -2.406522e+00 144 87 13
-1.468081e-01 2.893139e-01 -2.394729e+00 146 84 10
-1.465238e-01 2.900024e-01 -2.410224e+00 146 84 10
-6.188260e-01 3.388192e-01 -2.450795e+00 155 81 46
-7.815341e-01 3.574464e-01 -2.516433e+00 179 105 71
-2.046971e-01 3.738303e-01 -2.406725e+00 146 90 8
-8.226173e-01 3.644916e-01 -2.497494e+00 168 98 62
3.117462e-01 4.179826e-01 -2.425050e+00 92 50 10
3.142604e-01 4.185934e-01 -2.430747e+00 92 50 10
-8.431651e-01 4.240223e-01 -2.484592e+00 154 81 41
-9.630512e-01 4.610173e-01 -2.535195e+00 170 101 62
3.913289e-01 5.276600e-01 -2.465597e+00 106 61 7
-1.196150e-01 6.572059e-01 -2.530886e+00 255 239 210
-5.030356e-02 1.250912e+00 -2.607297e+00 65 56 77
-4.293039e-01 1.258356e+00 -2.656708e+00 67 54 78
-5.711762e-01 1.293194e+00 -2.723827e+00 62 50 75
-3.874543e-01 1.312023e+00 -2.718263e+00 115 99 99
-3.874543e-01 1.312023e+00 -2.718263e+00 115 99 99
-4.367201e-01 1.291449e+00 -2.663578e+00 107 92 90
5.463860e+00 2.498989e+00 -3.741681e+00 18 18 0
5.036179e+00 2.522085e+00 -3.761237e+00 121 104 81
1.381984e+00 -1.845853e+00 -1.687737e+00 91 71 43
1.279854e+00 -1.822913e+00 -1.695458e+00 123 114 85
1.241405e+00 -1.775019e+00 -1.709893e+00 23 21 1
1.179130e+00 -1.696454e+00 -1.722584e+00 39 34 15
1.205327e+00 -1.740018e+00 -1.787292e+00 30 24 6
2.514283e+00 -1.658047e+00 -1.653281e+00 170 165 103
-1.025111e+00 -1.863834e+00 -2.116801e+00 148 163 110
-1.011900e+00 -1.830199e+00 -2.082047e+00 148 163 110
2.595087e+00 -1.590190e+00 -1.685752e+00 182 171 118
-1.064949e+00 -1.748556e+00 -2.064865e+00 32 92 15
-1.049450e+00 -1.713506e+00 -2.031256e+00 32 92 15
-6.553193e-01 -1.651174e+00 -2.039295e+00 57 84 13
1.107525e+00 -1.627066e+00 -1.911259e+00 36 29 9
1.262776e+00 -1.348958e+00 -1.639319e+00 18 17 7
1.081834e+00 -1.589387e+00 -1.901522e+00 31 24 6
1.300711e+00 -1.363999e+00 -1.683862e+00 144 141 109
1.056210e+00 -1.551078e+00 -1.914630e+00 27 22 5
1.352681e+00 -1.404558e+00 -1.751857e+00 29 26 7
-4.377763e-01 -1.624013e+00 -2.093813e+00 179 170 113
-3.420152e-01 -1.534655e+00 -2.065135e+00 65 80 12
1.596584e+00 -1.159846e+00 -1.693702e+00 79 76 58
1.629510e+00 -1.187239e+00 -1.725286e+00 79 76 58
-1.358103e-01 -1.304828e+00 -2.037516e+00 26 104 7
2.571595e+00 -1.103104e+00 -1.680327e+00 37 28 3
1.871615e+00 -1.011106e+00 -1.717336e+00 96 93 69
1.871615e+00 -1.011106e+00 -1.717336e+00 96 93 69
1.936176e+00 -9.690555e-01 -1.717085e+00 101 99 72
2.459010e-01 -1.072054e+00 -2.090326e+00 189 175 140
7.431604e-01 -1.039015e+00 -2.054332e+00 21 35 9
5.594235e-01 -9.846806e-01 -2.035064e+00 16 114 9
5.159177e-01 -9.755570e-01 -2.070983e+00 16 84 19
8.986304e-01 -9.267404e-01 -2.020677e+00 95 112 74
-6.832650e-01 -9.250942e-01 -2.459725e+00 113 53 17
-6.832650e-01 -9.250942e-01 -2.459725e+00 113 53 17
2.063312e-01 -8.676053e-01 -2.362365e+00 88 2 1
2.063312e-01 -8.676053e-01 -2.362365e+00 88 2 1
1.001560e+00 -7.330781e-01 -2.062055e+00 228 236 181
-7.452405e-01 -8.569823e-01 -2.392452e+00 106 54 7
1.683029e-01 -8.365490e-01 -2.371079e+00 87 0 0
1.623833e-01 -8.281668e-01 -2.347928e+00 87 0 0
2.166500e-01 -8.304229e-01 -2.394858e+00 78 0 0
-4.832715e-01 -8.124971e-01 -2.399211e+00 156 91 23
-4.832715e-01 -8.124971e-01 -2.399211e+00 156 91 23
-3.839092e-02 -7.916370e-01 -2.404045e+00 98 11 6
-8.758413e-01 -8.657511e-01 -2.608701e+00 104 49 3
-8.684851e-01 -8.544632e-01 -2.583095e+00 104 49 3
-9.155304e-01 -8.115011e-01 -2.515136e+00 172 104 46
-9.155304e-01 -8.115011e-01 -2.515136e+00 172 104 46
-6.603351e-01 -7.261158e-01 -2.446809e+00 107 52 12
-4.358386e-01 -6.340156e-01 -2.332740e+00 146 79 15
-4.402454e-01 -6.479177e-01 -2.366316e+00 146 79 15
-8.653587e-01 -6.961436e-01 -2.550426e+00 112 55 5
-8.653587e-01 -6.961436e-01 -2.550426e+00 112 55 5
-4.754228e-01 -5.610144e-01 -2.408000e+00 153 90 18
-4.776137e-01 -5.668315e-01 -2.424620e+00 153 90 18
-1.107722e-02 -5.510001e-01 -2.381823e+00 79 4 0
-1.107722e-02 -5.510001e-01 -2.381823e+00 79 4 0
1.827193e-01 -5.466037e-01 -2.385237e+00 75 2 1
3.984608e-02 -5.351311e-01 -2.359448e+00 75 11 8
2.166992e-01 -5.309646e-01 -2.368576e+00 71 4 2
2.166992e-01 -5.309646e-01 -2.368576e+00 71 4 2
6.227497e-02 -4.954871e-01 -2.279708e+00 67 2 1
-2.389127e-03 -5.258300e-01 -2.391455e+00 142 37 9
1.107260e-01 -5.195448e-01 -2.378120e+00 71 4 4
1.139505e-01 -5.304002e-01 -2.406140e+00 71 4 4
2.873622e-01 -5.014567e-01 -2.370027e+00 74 4 1
3.328293e-01 -4.989825e-01 -2.413143e+00 76 0 0
3.407478e-01 -5.112261e-01 -2.443945e+00 76 0 0
1.489257e-01 -4.613488e-01 -2.381944e+00 80 1 0
-4.530710e-01 -4.531851e-01 -2.385977e+00 152 92 17
-4.530710e-01 -4.531851e-01 -2.385977e+00 152 92 17
-4.809647e-01 -4.589931e-01 -2.410981e+00 150 87 19
-4.833546e-01 -4.653557e-01 -2.431667e+00 150 87 19
3.149345e-01 -4.176740e-01 -2.320018e+00 80 5 4
2.257185e-01 -4.316907e-01 -2.371900e+00 74 2 2
2.781118e-01 -4.211428e-01 -2.395363e+00 79 0 1
-4.856385e-01 -4.087529e-01 -2.415084e+00 155 98 20
-4.861049e-01 -4.105148e-01 -2.419384e+00 155 98 20
1.055146e-01 -4.022617e-01 -2.407860e+00 81 11 12
1.057407e-01 -4.018913e-01 -2.407972e+00 81 11 12
1.739310e-01 -3.807184e-01 -2.403973e+00 70 4 0
1.692002e-01 -3.738218e-01 -2.375821e+00 70 4 0
-5.228248e-02 -3.548948e-01 -2.382617e+00 140 41 12
1.804285e-01 -3.532626e-01 -2.387921e+00 137 40 19
1.804285e-01 -3.532626e-01 -2.387921e+00 137 40 19
1.259820e-01 -3.421368e-01 -2.367269e+00 73 3 8
1.259820e-01 -3.421368e-01 -2.367269e+00 73 3 8
1.541055e-01 -3.357002e-01 -2.389150e+00 74 8 8
1.502044e-01 -3.283532e-01 -2.362305e+00 74 8 8
-8.167023e-02 -3.252760e-01 -2.364775e+00 70 5 4
-8.100575e-02 -3.285272e-01 -2.379562e+00 70 5 4
2.799618e-02 -3.360338e-01 -2.438903e+00 76 12 4
2.799618e-02 -3.360338e-01 -2.438903e+00 76 12 4
1.554525e-01 -3.017006e-01 -2.366173e+00 138 36 14
1.961074e-01 -2.835790e-01 -2.340902e+00 136 37 16
1.733377e-01 -2.821640e-01 -2.400906e+00 81 9 7
1.748633e-01 -2.851388e-01 -2.411103e+00 81 9 7
3.207308e-01 -2.836165e-01 -2.430500e+00 72 3 1
2.780844e-01 -2.655958e-01 -2.383225e+00 131 38 14
-7.857064e-02 -2.557827e-01 -2.378080e+00 162 76 36
2.353506e-01 -2.552470e-01 -2.375839e+00 75 5 1
3.753314e-01 -2.559926e-01 -2.434814e+00 73 1 4
3.756422e-01 -2.570639e-01 -2.438452e+00 73 1 4
1.842309e+00 -2.589599e-01 -2.566851e+00 210 192 154
-9.003067e-01 -2.550046e-01 -2.531774e+00 110 62 11
-9.346983e-01 -1.538848e-01 -2.533149e+00 112 72 4
-5.773859e-01 -1.276888e-01 -2.440744e+00 124 81 29
-5.773859e-01 -1.276888e-01 -2.440744e+00 124 81 29
2.977194e-01 -1.112209e-01 -2.392188e+00 160 66 38
-8.436317e-01 -1.349582e-01 -2.506192e+00 106 57 1
-6.334209e-01 -1.181095e-01 -2.435840e+00 97 55 6
-6.334209e-01 -1.181095e-01 -2.435840e+00 97 55 6
-7.862180e-01 -1.188290e-01 -2.489217e+00 155 108 27
-7.183532e-01 -1.074541e-01 -2.458480e+00 106 59 4
-7.183532e-01 -1.074541e-01 -2.458480e+00 106 59 4
1.444839e+00 -7.916582e-02 -2.501133e+00 15 7 0
-6.913824e-01 -5.618615e-02 -2.435763e+00 124 69 3
-6.913824e-01 -5.618615e-02 -2.435763e+00 124 69 3
-7.331088e-01 -5.365315e-02 -2.464724e+00 114 58 1
-7.327514e-01 -5.346585e-02 -2.463043e+00 114 58 1
-6.692524e-01 -3.838049e-02 -2.443656e+00 164 108 27
-7.848481e-01 -4.282844e-02 -2.478592e+00 118 60 1
-9.435098e-01 -5.240501e-02 -2.546937e+00 119 78 13
-9.046029e-01 -4.018557e-02 -2.525273e+00 156 103 29
-9.046029e-01 -4.018557e-02 -2.525273e+00 156 103 29
-8.805310e-01 -2.306078e-02 -2.520606e+00 124 69 5
-8.805310e-01 -2.306078e-02 -2.520606e+00 124 69 5
-8.264349e-01 -8.796248e-03 -2.494295e+00 160 110 30
-7.491513e-01 -5.537902e-03 -2.493633e+00 109 64 5
-7.491513e-01 -5.537902e-03 -2.493633e+00 109 64 5
-7.504328e-01 -6.609589e-03 -2.499111e+00 109 64 5
-8.782083e-01 7.980240e-03 -2.505178e+00 164 117 36
-9.052868e-01 1.131125e-02 -2.529412e+00 160 108 32
1.032071e-01 5.667793e-02 -2.390559e+00 90 33 8
1.042144e-01 5.579152e-02 -2.400416e+00 90 33 8
-5.840180e-02 5.446320e-02 -2.386768e+00 147 93 16
-1.334115e-01 5.400857e-02 -2.386071e+00 152 89 14
-8.832975e-01 3.485081e-02 -2.512951e+00 99 59 4
-7.386651e-01 5.177350e-02 -2.457809e+00 119 64 3
-1.163073e-01 7.218942e-02 -2.393012e+00 98 37 4
1.872155e-01 7.653594e-02 -2.412433e+00 92 38 16
1.876529e-01 7.635355e-02 -2.415219e+00 92 38 16
1.055460e-01 8.227993e-02 -2.402584e+00 134 77 6
1.055460e-01 8.227993e-02 -2.402584e+00 134 77 6
-8.258997e-01 6.705742e-02 -2.501438e+00 115 63 1
1.901124e-01 1.026511e-01 -2.424006e+00 137 78 15
1.903383e-01 1.028627e-01 -2.423704e+00 137 78 15
-9.027777e-01 9.153643e-02 -2.517243e+00 119 67 3
1.633377e-01 1.214582e-01 -2.393015e+00 75 23 6
1.629687e-01 1.216368e-01 -2.389485e+00 75 23 6
-8.486823e-01 1.207308e-01 -2.510264e+00 112 66 1
-9.094086e-01 1.190511e-01 -2.513896e+00 160 115 30
3.807704e-01 1.538624e-01 -2.456809e+00 81 28 5
-1.611987e-01 1.507818e-01 -2.392370e+00 100 45 21
-3.679190e-01 1.559543e-01 -2.407876e+00 158 102 20
-4.044500e-01 1.547192e-01 -2.420180e+00 153 100 16
3.239661e-01 1.771000e-01 -2.434866e+00 94 41 19
-9.864143e-02 1.825389e-01 -2.391633e+00 147 87 11
7.745866e-02 1.873048e-01 -2.398210e+00 78 18 1
7.712306e-02 1.871230e-01 -2.397426e+00 78 18 1
-5.827048e-02 1.892601e-01 -2.371196e+00 149 90 14
-5.827048e-02 1.892601e-01 -2.371196e+00 149 90 14
-1.204511e-02 1.920294e-01 -2.405956e+00 147 88 8
7.041010e-02 2.102169e-01 -2.397431e+00 143 84 9
-8.367661e-01 2.003927e-01 -2.503004e+00 169 118 34
1.284527e-01 2.226977e-01 -2.404188e+00 138 78 8
1.284527e-01 2.226977e-01 -2.404188e+00 138 78 8
1.767081e-01 2.362624e-01 -2.407945e+00 142 81 14
1.767081e-01 2.362624e-01 -2.407945e+00 142 81 14
-1.296926e-01 2.301056e-01 -2.397905e+00 148 89 12
-1.296926e-01 2.301056e-01 -2.397905e+00 148 89 12
-9.545331e-01 2.133264e-01 -2.539484e+00 113 65 9
-7.586457e-02 2.361271e-01 -2.399565e+00 152 91 12
-7.709787e-02 2.365621e-01 -2.383857e+00 152 91 12
-9.322565e-01 2.268033e-01 -2.542552e+00 156 111 39
1.560308e-01 2.544778e-01 -2.407109e+00 106 51 19
1.560308e-01 2.544778e-01 -2.407109e+00 106 51 19
3.487127e-01 2.714010e-01 -2.426597e+00 110 59 4
3.487127e-01 2.714010e-01 -2.426597e+00 110 59 4
-9.259870e-01 2.505180e-01 -2.530159e+00 109 64 5
-9.259870e-01 2.505180e-01 -2.530159e+00 109 64 5
-4.654155e-02 2.723149e-01 -2.389342e+00 93 35 15
-4.654155e-02 2.723149e-01 -2.389342e+00 93 35 15
-1.141212e-01 2.905426e-01 -2.398351e+00 146 88 6
2.963102e-01 3.029410e-01 -2.420495e+00 100 43 1
2.911610e-01 3.027562e-01 -2.393854e+00 100 43 1
2.923663e-01 3.023218e-01 -2.400493e+00 100 43 1
3.511147e-01 3.247125e-01 -2.440620e+00 108 57 6
3.508047e-01 3.235778e-01 -2.435754e+00 108 57 6
-5.727779e-01 3.064728e-01 -2.437145e+00 143 45 9
-6.637556e-01 3.099352e-01 -2.468579e+00 147 45 11
-5.945759e-01 3.282843e-01 -2.451841e+00 156 81 44
4.064622e-01 3.581836e-01 -2.462668e+00 107 54 4
2.943249e-01 3.547153e-01 -2.422403e+00 92 36 0
2.937265e-01 3.545916e-01 -2.418758e+00 92 36 0
-9.700950e-01 3.339896e-01 -2.552111e+00 106 57 0
-7.126605e-01 3.436197e-01 -2.475282e+00 156 86 52
1.012364e-01 3.697354e-01 -2.467603e+00 93 43 31
3.511571e-01 3.766177e-01 -2.450086e+00 111 62 13
2.933240e-01 3.829526e-01 -2.430897e+00 149 95 24
-1.347932e-01 3.842787e-01 -2.401189e+00 76 21 6
-6.388481e-02 3.917520e-01 -2.390527e+00 99 48 15
2.702027e-01 4.055604e-01 -2.425339e+00 94 50 11
2.702027e-01 4.055604e-01 -2.425339e+00 94 50 11
-9.212776e-01 3.861677e-01 -2.531666e+00 165 92 51
-1.637208e-01 4.064064e-01 -2.404160e+00 170 108 21
-1.634564e-01 4.065269e-01 -2.405790e+00 170 108 21
-1.121924e+00 5.050534e-01 -2.678430e+00 148 108 63
5.312205e-01 6.762056e-01 -2.586809e+00 163 108 65
-5.319365e-01 1.257668e+00 -2.653539e+00 63 51 71
-1.806747e-01 1.281496e+00 -2.660826e+00 59 50 68
1.733985e-01 1.300452e+00 -2.652660e+00 54 37 43
-1.816813e-03 1.287338e+00 -2.632856e+00 116 103 95
-4.943573e-02 1.306676e+00 -2.681565e+00 119 99 98
-7.965492e-02 1.298656e+00 -2.659907e+00 115 100 97
1.131095e-01 1.305549e+00 -2.642201e+00 53 40 56
1.131095e-01 1.305549e+00 -2.642201e+00 53 40 56
-2.684704e-01 1.302226e+00 -2.679120e+00 111 98 98
-2.692412e-01 1.309014e+00 -2.696546e+00 111 98 98
8.885459e+00 2.779516e+00 -4.700359e+00 69 62 54
4.958352e+00 2.785739e+00 -4.015243e+00 49 39 17
1.326687e+00 -1.855948e+00 -1.695614e+00 45 27 3
1.438036e+00 -1.851811e+00 -1.690394e+00 66 65 46
1.421887e+00 -1.862339e+00 -1.700585e+00 64 57 36
1.475252e+00 -1.820897e+00 -1.684204e+00 67 68 52
1.612428e+00 -1.655855e+00 -1.692659e+00 85 86 72
1.263789e+00 -1.598584e+00 -1.680712e+00 53 55 44
-9.264595e-01 -1.803848e+00 -2.049002e+00 69 69 21
2.569735e+00 -1.597482e+00 -1.692829e+00 79 74 55
-8.389057e-01 -1.724576e+00 -2.046067e+00 148 165 109
-8.389057e-01 -1.724576e+00 -2.046067e+00 148 165 109
-7.780423e-01 -1.696041e+00 -2.021382e+00 141 156 98
-9.903878e-01 -1.693665e+00 -2.057316e+00 53 110 53
-7.075146e-01 -1.728181e+00 -2.103530e+00 68 86 34
-1.084627e+00 -1.671691e+00 -2.087247e+00 199 192 160
2.553677e+00 -1.481726e+00 -1.677690e+00 41 36 3
-6.221116e-01 -1.618974e+00 -2.012499e+00 154 157 95
1.284339e+00 -1.329673e+00 -1.642788e+00 30 25 10
1.253645e+00 -1.357575e+00 -1.698670e+00 87 85 73
-5.232667e-01 -1.574629e+00 -2.036059e+00 162 174 117
-4.387715e-01 -1.612903e+00 -2.083454e+00 178 172 112
-6.455318e-01 -1.564822e+00 -2.046994e+00 40 101 45
1.250365e+00 -1.364937e+00 -1.725481e+00 72 73 57
1.249067e+00 -1.363164e+00 -1.723709e+00 72 73 57
-1.288097e-01 -1.453465e+00 -2.080309e+00 62 85 7
1.575277e+00 -1.218790e+00 -1.719444e+00 74 72 59
1.622123e+00 -1.142206e+00 -1.695651e+00 82 81 61
1.647332e+00 -1.161475e+00 -1.719330e+00 82 81 61
2.589516e+00 -1.068699e+00 -1.697782e+00 83 75 27
4.237050e-01 -1.188143e+00 -2.060766e+00 60 68 13
6.444336e-02 -1.169941e+00 -2.064991e+00 27 80 19
1.913038e+00 -9.927977e-01 -1.721439e+00 94 89 68
1.913038e+00 -9.927977e-01 -1.721439e+00 94 89 68
7.782170e-01 -1.215163e+00 -2.164109e+00 27 18 2
2.238994e-01 -1.117801e+00 -2.087247e+00 28 82 22
5.915572e-01 -1.088849e+00 -2.050255e+00 133 144 97
5.809632e-01 -1.070322e+00 -2.023441e+00 133 144 97
3.713185e-01 -1.039805e+00 -2.091634e+00 221 235 192
7.945436e-01 -9.884406e-01 -2.039854e+00 8 40 5
6.861095e-01 -9.680548e-01 -2.047828e+00 27 99 5
5.312182e-01 -9.462827e-01 -2.040349e+00 22 75 9
5.270415e-01 -9.575441e-01 -2.075064e+00 216 232 181
8.564696e-01 -9.160470e-01 -2.050634e+00 179 201 136
6.881947e-01 -8.850674e-01 -2.076807e+00 219 240 183
1.061999e+00 -8.597553e-01 -2.027366e+00 81 95 65
9.006149e-01 -8.215067e-01 -2.079831e+00 17 75 0
2.132743e+00 -6.918965e-01 -1.787777e+00 65 52 27
9.119628e-01 -7.852891e-01 -2.044098e+00 22 70 2
-4.404678e-01 -9.388321e-01 -2.405301e+00 97 38 0
5.749116e-01 -9.494052e-01 -2.389491e+00 130 110 81
4.603287e-02 -9.148699e-01 -2.357790e+00 83 3 0
4.603287e-02 -9.148699e-01 -2.357790e+00 83 3 0
-6.434198e-01 -9.136802e-01 -2.421886e+00 98 31 2
1.397203e-01 -9.000533e-01 -2.381362e+00 95 5 3
1.450755e-01 -9.154030e-01 -2.408089e+00 95 5 3
-2.925642e-02 -8.865108e-01 -2.373961e+00 85 1 1
-2.925642e-02 -8.865108e-01 -2.373961e+00 85 1 1
1.022292e+00 -7.446985e-01 -2.065765e+00 11 70 14
-7.262476e-01 -8.840150e-01 -2.424281e+00 92 38 1
-7.414532e-01 -8.758804e-01 -2.462221e+00 157 93 32
-7.414532e-01 -8.758804e-01 -2.462221e+00 157 93 32
-7.806803e-01 -8.800613e-01 -2.495546e+00 159 99 36
-7.799848e-01 -8.779654e-01 -2.491940e+00 159 99 36
-8.081387e-01 -8.592177e-01 -2.484003e+00 157 93 29
-8.081387e-01 -8.592177e-01 -2.484003e+00 157 93 29
-7.731215e-01 -8.496592e-01 -2.483976e+00 98 42 0
-7.717754e-01 -8.474345e-01 -2.475932e+00 98 42 0
-8.705821e-01 -8.655959e-01 -2.512523e+00 110 47 0
-8.963256e-01 -9.109709e-01 -2.610159e+00 110 47 0
-4.254833e-01 -7.996000e-01 -2.364343e+00 148 81 23
2.490504e-01 -8.019793e-01 -2.357116e+00 84 0 0
2.521008e-01 -8.077641e-01 -2.374187e+00 84 0 0
1.164344e+00 -6.817399e-01 -2.069747e+00 155 116 55
1.009830e-01 -8.063783e-01 -2.383807e+00 99 2 2
9.933805e-02 -8.008007e-01 -2.372844e+00 99 2 2
-8.216577e-01 -8.289663e-01 -2.486994e+00 102 43 2
-8.224398e-01 -8.299249e-01 -2.489833e+00 102 43 2
3.133705e-01 -7.755679e-01 -2.332938e+00 113 30 18
-8.842895e-01 -8.354860e-01 -2.522372e+00 158 104 42
1.230529e+00 -6.431268e-01 -2.031551e+00 165 129 66
1.710120e-01 -7.927613e-01 -2.410337e+00 84 0 1
1.710120e-01 -7.927613e-01 -2.410337e+00 84 0 1
1.745690e-01 -8.006293e-01 -2.424386e+00 84 0 1
-7.446704e-01 -7.876369e-01 -2.435886e+00 95 27 0
-7.495170e-01 -7.969750e-01 -2.458609e+00 95 27 0
-8.246942e-01 -8.080896e-01 -2.495456e+00 155 97 31
-8.246942e-01 -8.080896e-01 -2.495456e+00 155 97 31
1.226638e-01 -7.576852e-01 -2.358987e+00 139 40 18
1.238113e-01 -7.593541e-01 -2.361864e+00 139 40 18
-4.280236e-01 -7.491183e-01 -2.361065e+00 144 75 9
-8.909798e-01 -8.033093e-01 -2.514294e+00 111 56 3
-8.170116e-01 -7.717913e-01 -2.466861e+00 110 50 2
-8.170116e-01 -7.717913e-01 -2.466861e+00 110 50 2
1.986424e-01 -7.184195e-01 -2.328795e+00 133 30 14
1.986424e-01 -7.184195e-01 -2.328795e+00 133 30 14
-8.945304e-01 -7.902553e-01 -2.537054e+00 158 101 37
-8.924721e-01 -7.882083e-01 -2.530703e+00 158 101 37
1.689235e-01 -7.424357e-01 -2.406762e+00 86 0 0
-8.670173e-01 -7.655959e-01 -2.505505e+00 114 54 4
-8.673259e-01 -7.662235e-01 -2.506876e+00 114 54 4
2.097341e+00 -6.053339e-01 -2.043833e+00 36 29 9
2.618133e-01 -7.165781e-01 -2.378891e+00 135 40 23
2.622142e-01 -7.159383e-01 -2.378919e+00 135 40 23
-6.224026e-01 -7.178447e-01 -2.417375e+00 96 33 0
-6.228409e-01 -7.197067e-01 -2.419121e+00 96 33 0
-6.276268e-01 -7.308667e-01 -2.447303e+00 96 33 0
-4.367840e-01 -7.019878e-01 -2.376459e+00 147 80 19
2.515882e-01 -7.085696e-01 -2.400014e+00 88 0 0
-4.521651e-01 -6.744988e-01 -2.380073e+00 83 21 0
-4.560954e-01 -6.881766e-01 -2.412640e+00 83 21 0
-3.103871e-01 -6.668737e-01 -2.366296e+00 118 41 1
-4.414385e-01 -6.587660e-01 -2.392123e+00 146 79 16
-5.022081e-01 -6.575481e-01 -2.395193e+00 154 91 23
-5.022081e-01 -6.575481e-01 -2.395193e+00 154 91 23
-8.789875e-01 -6.738979e-01 -2.525782e+00 109 56 1
-8.772739e-01 -6.706673e-01 -2.519106e+00 109 56 1
4.141169e-02 -5.797139e-01 -2.356622e+00 73 1 0
4.375278e-02 -5.815346e-01 -2.370572e+00 73 1 0
4.513701e-02 -5.922606e-01 -2.391605e+00 73 1 0
-7.568518e-01 -6.022660e-01 -2.471775e+00 105 35 0
-3.171997e-01 -5.723901e-01 -2.384873e+00 111 43 1
1.121209e-01 -5.646112e-01 -2.365263e+00 66 2 1
1.127226e-01 -5.658645e-01 -2.368060e+00 66 2 1
-5.257410e-01 -5.711928e-01 -2.405758e+00 104 34 0
-5.257410e-01 -5.711928e-01 -2.405758e+00 104 34 0
-7.818446e-01 -6.019882e-01 -2.490529e+00 104 46 1
-7.818446e-01 -6.019882e-01 -2.490529e+00 104 46 1
5.905287e-02 -5.725988e-01 -2.393482e+00 138 39 22
-3.600102e-01 -5.660497e-01 -2.404706e+00 153 89 17
-3.608987e-01 -5.684802e-01 -2.412977e+00 153 89 17
-8.135038e-01 -5.936879e-01 -2.497017e+00 100 40 0
-8.114026e-01 -5.923818e-01 -2.491079e+00 100 40 0
-6.717017e-02 -5.476013e-01 -2.351606e+00 88 8 4
-6.617481e-02 -5.532680e-01 -2.371013e+00 88 8 4
-9.158380e-01 -6.015102e-01 -2.532376e+00 109 47 1
-8.079358e-01 -5.753231e-01 -2.502323e+00 154 94 23
1.395040e-02 -5.388314e-01 -2.375763e+00 71 5 1
-2.713641e-02 -5.236360e-01 -2.365900e+00 146 48 16
-2.740284e-01 -5.193066e-01 -2.367720e+00 178 119 73
2.117167e+00 -5.187186e-01 -2.309493e+00 38 26 12
1.425806e-01 -5.373386e-01 -2.436232e+00 72 3 3
1.366506e-01 -5.235816e-01 -2.398658e+00 72 3 3
-5.268255e-01 -5.145351e-01 -2.392312e+00 99 31 1
-5.268255e-01 -5.145351e-01 -2.392312e+00 99 31 1
-3.606448e-01 -5.084380e-01 -2.382622e+00 159 94 25
-2.268321e-02 -5.003018e-01 -2.377562e+00 83 3 0
8.594953e-02 -4.817083e-01 -2.320641e+00 135 37 20
2.512819e-01 -5.061692e-01 -2.398839e+00 129 33 19
2.512819e-01 -5.061692e-01 -2.398839e+00 129 33 19
1.210135e-01 -4.965215e-01 -2.378811e+00 131 32 9
1.245212e-01 -5.058960e-01 -2.407999e+00 131 32 9
2.051348e-01 -5.026036e-01 -2.401240e+00 80 0 5
2.051348e-01 -5.026036e-01 -2.401240e+00 80 0 5
6.690098e-02 -4.875859e-01 -2.387889e+00 72 0 0
6.547467e-02 -4.841468e-01 -2.376748e+00 72 0 0
2.358105e-01 -4.913350e-01 -2.411676e+00 66 0 4
2.470569e-01 -4.614343e-01 -2.340512e+00 76 5 6
2.470569e-01 -4.614343e-01 -2.340512e+00 76 5 6
-1.756331e-01 -4.765726e-01 -2.401144e+00 143 35 4
-1.756331e-01 -4.765726e-01 -2.401144e+00 143 35 4
-3.208039e-01 -4.674196e-01 -2.378614e+00 123 56 4
-3.209719e-01 -4.706087e-01 -2.388899e+00 123 56 4
-3.208039e-01 -4.674196e-01 -2.378614e+00 123 56 4
2.879580e-01 -4.788409e-01 -2.428307e+00 78 1 5
2.973458e-01 -4.468965e-01 -2.412462e+00 135 38 22
2.986334e-01 -4.497165e-01 -2.420934e+00 135 38 22
-4.712678e-01 -4.257324e-01 -2.398537e+00 84 26 0
4.622836e-01 -4.339085e-01 -2.407090e+00 116 24 0
-3.895295e-01 -4.180013e-01 -2.424185e+00 156 97 21
-4.500108e-01 -4.003865e-01 -2.371767e+00 156 99 23
3.881150e-01 -4.085376e-01 -2.401832e+00 78 0 1
3.881150e-01 -4.085376e-01 -2.401832e+00 78 0 1
3.199446e-01 -4.084381e-01 -2.411458e+00 79 0 1
-5.214774e-01 -4.064161e-01 -2.417284e+00 158 99 23
3.722986e-01 -3.904030e-01 -2.392275e+00 129 38 21
3.743118e-01 -3.916645e-01 -2.397948e+00 129 38 21
1.410903e-01 -3.825972e-01 -2.371110e+00 70 4 0
1.421613e-01 -3.842520e-01 -2.376771e+00 70 4 0
-6.713793e-02 -3.727994e-01 -2.359437e+00 78 3 4
3.623240e-01 -3.840867e-01 -2.418710e+00 67 0 0
3.623240e-01 -3.840867e-01 -2.418710e+00 67 0 0
1.990531e-01 -3.701104e-01 -2.380827e+00 67 3 1
1.119968e-01 -3.706490e-01 -2.386423e+00 136 40 19
1.465225e-01 -3.640088e-01 -2.391055e+00 133 40 24
1.446828e-01 -3.607872e-01 -2.378435e+00 133 40 24
1.883106e+00 -3.514218e-01 -2.327005e+00 38 29 3
3.929692e-01 -3.648041e-01 -2.426200e+00 82 0 1
3.703826e-01 -3.404221e-01 -2.334380e+00 82 0 1
2.611914e-01 -3.425184e-01 -2.372497e+00 77 0 0
2.590377e-01 -3.405424e-01 -2.363792e+00 77 0 0
1.617413e-02 -3.419793e-01 -2.377604e+00 137 39 14
1.617413e-02 -3.419793e-01 -2.377604e+00 137 39 14
7.715630e-01 -3.682821e-01 -2.505137e+00 49 39 30
7.280891e-02 -3.296801e-01 -2.373136e+00 141 37 21
-4.182559e-02 -3.217672e-01 -2.356444e+00 78 8 9
-4.182559e-02 -3.217672e-01 -2.356444e+00 78 8 9
1.039205e-01 -3.153544e-01 -2.353693e+00 135 33 11
1.039205e-01 -3.153544e-01 -2.353693e+00 135 33 11
2.133104e-01 -3.259760e-01 -2.412443e+00 77 5 2
2.042085e-01 -3.126947e-01 -2.359253e+00 77 5 2
-5.822672e-01 -3.193995e-01 -2.425320e+00 76 28 3
2.516253e-01 -2.785762e-01 -2.388783e+00 136 33 12
2.516253e-01 -2.785762e-01 -2.388783e+00 136 33 12
2.792931e-01 -2.699590e-01 -2.396474e+00 132 38 14
-7.901861e-01 -2.871707e-01 -2.477196e+00 83 28 0
-7.916926e-01 -2.880075e-01 -2.480295e+00 83 28 0
3.419123e-01 -2.636313e-01 -2.405155e+00 74 2 0
3.419123e-01 -2.636313e-01 -2.405155e+00 74 2 0
2.604126e-01 -2.438848e-01 -2.365683e+00 65 1 0
1.910526e+00 -2.838943e-01 -2.549060e+00 15 5 0
3.368176e-01 -2.433140e-01 -2.402999e+00 127 36 17
3.368176e-01 -2.433140e-01 -2.402999e+00 127 36 17
-1.086493e-02 -2.273863e-01 -2.385879e+00 137 29 1
-9.385689e-01 -2.298663e-01 -2.535728e+00 123 70 4
5.061396e-01 -1.859597e-01 -2.444751e+00 146 109 60
-3.383778e-01 -1.812576e-01 -2.417182e+00 78 12 0
-3.726526e-01 -1.719272e-01 -2.388037e+00 83 24 1
-3.724990e-01 -1.713657e-01 -2.384292e+00 83 24 1
1.088946e+00 -1.555465e-01 -2.376438e+00 40 34 22
9.330085e-02 -1.151645e-01 -2.391229e+00 161 65 31
9.270348e-02 -1.148833e-01 -2.387729e+00 161 65 31
-9.106785e-01 -1.393462e-01 -2.525261e+00 157 109 33
2.977868e-01 -1.112154e-01 -2.392159e+00 161 67 39
-1.652158e-01 -1.039462e-01 -2.387494e+00 179 90 53
-1.649475e-01 -1.044498e-01 -2.389193e+00 179 90 53
1.208439e-02 -8.820680e-02 -2.394966e+00 165 72 38
-5.921468e-01 -6.442964e-02 -2.396645e+00 114 54 0
-9.284100e-01 -8.344604e-02 -2.540158e+00 163 119 41
-9.298384e-01 -8.383690e-02 -2.543640e+00 163 119 41
-4.233864e-01 -5.285089e-02 -2.425370e+00 151 103 25
-1.029835e+00 -6.697810e-02 -2.587975e+00 127 56 12
-2.065814e-03 -1.748919e-02 -2.374819e+00 174 121 76
-7.171484e-01 -1.088312e-02 -2.465923e+00 101 60 3
-7.201147e-01 1.280839e-02 -2.481105e+00 155 105 25
-8.787102e-01 6.216928e-03 -2.515426e+00 164 117 36
-7.932971e-01 3.061860e-02 -2.496558e+00 148 100 21
4.282224e-01 4.363983e-02 -2.499909e+00 163 78 41
-6.517975e-02 5.254327e-02 -2.383262e+00 152 97 21
1.587364e-01 6.817979e-02 -2.401105e+00 84 29 5
1.587364e-01 6.817979e-02 -2.401105e+00 84 29 5
6.566559e-02 7.283127e-02 -2.392994e+00 148 88 22
1.361642e-01 9.102502e-02 -2.384815e+00 140 79 13
-7.576031e-01 7.293532e-02 -2.522232e+00 159 107 24
1.651635e-01 9.666498e-02 -2.413151e+00 136 77 17
1.623754e-01 9.787873e-02 -2.401716e+00 136 77 17
1.996292e-01 1.105596e-01 -2.383940e+00 143 83 13
1.986771e-01 1.109144e-01 -2.378684e+00 143 83 13
-8.180266e-01 9.024448e-02 -2.497682e+00 159 110 29
2.067462e-01 1.314082e-01 -2.421022e+00 81 18 5
2.056469e-01 1.323361e-01 -2.414766e+00 81 18 5
2.895232e-01 1.351596e-01 -2.427672e+00 144 85 25
3.537415e-01 1.419733e-01 -2.438902e+00 78 17 0
3.537415e-01 1.419733e-01 -2.438902e+00 78 17 0
3.213373e-01 1.516706e-01 -2.421117e+00 132 73 14
3.213373e-01 1.516706e-01 -2.421117e+00 132 73 14
-8.867672e-01 1.340593e-01 -2.515133e+00 120 79 5
2.766552e-01 1.585965e-01 -2.416832e+00 75 19 4
3.517065e-01 1.634597e-01 -2.440702e+00 136 75 19
3.505584e-01 1.638682e-01 -2.438439e+00 136 75 19
-9.154730e-01 1.694074e-01 -2.526431e+00 157 106 32
1.614863e-02 1.972002e-01 -2.401280e+00 147 86 19
6.916644e-02 2.101623e-01 -2.399803e+00 142 83 7
6.992509e-02 2.101993e-01 -2.402090e+00 142 83 7
-3.042927e-01 2.099479e-01 -2.399217e+00 185 117 62
-7.244987e-01 2.049718e-01 -2.459357e+00 90 39 0
-8.665384e-01 2.109681e-01 -2.503799e+00 160 112 36
-7.855170e-01 2.148641e-01 -2.471639e+00 93 45 0
-7.855170e-01 2.148641e-01 -2.471639e+00 93 45 0
-8.942536e-01 2.165750e-01 -2.515355e+00 164 117 40
-8.942536e-01 2.165750e-01 -2.515355e+00 164 117 40
-3.557894e-01 2.374624e-01 -2.428669e+00 65 0 1
-3.557894e-01 2.374624e-01 -2.428669e+00 65 0 1
-4.418269e-01 2.840612e-01 -2.427828e+00 173 121 49
-5.996351e-01 3.067842e-01 -2.430760e+00 144 43 9
-6.363776e-01 3.092039e-01 -2.463172e+00 144 44 10
2.895576e-01 3.286510e-01 -2.393384e+00 151 98 23
3.526380e-01 3.476454e-01 -2.457674e+00 157 103 34
-8.762496e-01 3.293090e-01 -2.519411e+00 178 134 74
-9.170488e-01 3.375629e-01 -2.585514e+00 180 133 66
-9.170488e-01 3.375629e-01 -2.585514e+00 180 133 66
-8.605276e-01 3.443723e-01 -2.543726e+00 147 49 17
-9.464579e-01 3.483197e-01 -2.540851e+00 180 129 69
-9.118252e-01 3.585820e-01 -2.531448e+00 147 50 15
-9.398412e-01 3.668471e-01 -2.541789e+00 148 57 15
-9.673127e-01 3.788966e-01 -2.543705e+00 146 61 16
-9.673127e-01 3.788966e-01 -2.543705e+00 146 61 16
-1.071573e-01 4.158131e-01 -2.407684e+00 170 119 42
-7.531207e-02 4.192756e-01 -2.401485e+00 176 126 57
-5.885943e-03 4.342425e-01 -2.426374e+00 177 130 68
3.572418e-01 5.397373e-01 -2.413285e+00 177 124 61
4.794833e-01 7.768746e-01 -2.515668e+00 134 23 0
-1.155298e+00 9.012000e-01 -2.769171e+00 222 197 160
-1.052948e-01 1.245622e+00 -2.617513e+00 60 47 65
6.825972e-02 1.247740e+00 -2.565143e+00 55 40 56
-2.505019e-02 1.276218e+00 -2.645131e+00 57 44 63
-1.273771e-01 1.283959e+00 -2.654004e+00 56 44 63
1.625322e-01 1.278208e+00 -2.595555e+00 53 36 42
1.623708e-01 1.276236e+00 -2.587989e+00 53 36 42
1.662584e-01 1.289822e+00 -2.624606e+00 53 36 42
-3.076015e-02 1.266731e+00 -2.569552e+00 119 105 97
-3.076015e-02 1.266731e+00 -2.569552e+00 119 105 97
4.084310e-01 1.289369e+00 -2.554905e+00 121 106 108
-1.979061e-01 1.308227e+00 -2.682109e+00 114 100 99
-1.988199e-01 1.292331e+00 -2.637607e+00 114 100 99
4.502478e-01 1.303707e+00 -2.582352e+00 34 20 28
4.496776e-01 1.300874e+00 -2.571743e+00 34 20 28
-1.016288e+00 1.401372e+00 -2.818307e+00 100 86 91
1.284302e+00 -1.818095e+00 -1.669116e+00 103 87 60
2.167480e+00 -1.776114e+00 -1.667436e+00 39 33 10
1.251702e+00 -1.655777e+00 -1.670759e+00 44 44 34
2.528587e+00 -1.671379e+00 -1.672696e+00 32 29 0
-9.496996e-01 -1.811357e+00 -2.066728e+00 133 154 99
-9.400542e-01 -1.786111e+00 -2.043049e+00 133 154 99
-8.477949e-01 -1.726783e+00 -2.033558e+00 64 92 44
-8.293610e-01 -1.748169e+00 -2.059004e+00 58 77 29
-1.079113e+00 -1.735623e+00 -2.075258e+00 215 227 165
-1.030948e+00 -1.724178e+00 -2.065800e+00 24 106 19
-1.033104e+00 -1.695563e+00 -2.038800e+00 158 219 137
-1.023841e+00 -1.711871e+00 -2.070990e+00 74 161 68
1.266194e+00 -1.441010e+00 -1.682458e+00 69 68 51
1.267927e+00 -1.442519e+00 -1.684325e+00 69 68 51
-6.827915e-01 -1.722056e+00 -2.104655e+00 62 78 20
-6.827915e-01 -1.722056e+00 -2.104655e+00 62 78 20
1.330158e+00 -1.461241e+00 -1.753539e+00 34 31 16
1.366324e+00 -1.415759e+00 -1.708927e+00 84 81 74
1.281120e+00 -1.388981e+00 -1.692705e+00 98 94 67
1.426488e+00 -1.217251e+00 -1.709281e+00 72 70 58
1.424532e+00 -1.215164e+00 -1.707019e+00 72 70 58
-3.364548e-01 -1.370911e+00 -2.021238e+00 63 83 15
1.293428e+00 -1.189973e+00 -1.775210e+00 88 86 73
1.193922e+00 -1.168033e+00 -1.785995e+00 22 19 10
1.218418e+00 -1.191995e+00 -1.833150e+00 78 75 59
-1.310412e-01 -1.157457e+00 -1.877113e+00 136 223 128
-1.262677e-01 -1.325098e+00 -2.094437e+00 136 223 128
1.166833e+00 -1.173469e+00 -1.832447e+00 64 62 47
1.156934e+00 -1.188605e+00 -1.860055e+00 77 75 62
-3.975920e-02 -1.285274e+00 -2.076148e+00 46 93 40
1.017933e+00 -1.178570e+00 -1.909751e+00 15 13 2
-1.365239e-01 -1.248458e+00 -2.086764e+00 205 195 160
2.492394e+00 -1.002866e+00 -1.715550e+00 70 63 53
5.117234e-01 -1.154659e+00 -2.065568e+00 52 73 11
1.939738e-01 -1.159502e+00 -2.094219e+00 53 144 46
2.099267e-01 -1.120321e+00 -2.059239e+00 97 170 81
2.106578e-01 -1.111625e+00 -2.090090e+00 206 222 179
6.081027e-01 -1.096838e+00 -2.048875e+00 36 47 5
6.057552e-01 -1.091983e+00 -2.041706e+00 36 47 5
2.410556e-01 -1.109422e+00 -2.111868e+00 58 87 35
1.128244e+00 -9.963345e-01 -1.921163e+00 51 48 41
4.660012e-01 -1.049990e+00 -2.061366e+00 61 75 14
3.296854e-01 -1.032536e+00 -2.063176e+00 54 96 44
3.831906e-01 -1.039032e+00 -2.080362e+00 23 67 14
7.658852e-01 -1.021957e+00 -2.043780e+00 15 31 1
3.938599e-01 -1.019340e+00 -2.083612e+00 50 94 30
5.295669e-01 -9.786725e-01 -2.132171e+00 109 99 52
7.703908e-01 -9.239763e-01 -2.073518e+00 52 98 35
7.851156e-01 -9.010254e-01 -2.051941e+00 59 77 20
6.941407e-01 -8.808757e-01 -2.055718e+00 27 75 19
2.386053e+00 -8.223334e-01 -1.883165e+00 211 196 157
7.929519e-01 -8.516481e-01 -2.030318e+00 93 176 76
7.594577e-01 -8.718661e-01 -2.068533e+00 18 74 1
9.624687e-01 -8.596655e-01 -2.054605e+00 41 85 17
-5.101124e-01 -9.970349e-01 -2.401511e+00 183 118 71
-5.559370e-01 -9.727586e-01 -2.370474e+00 182 122 74
8.490229e-01 -8.030776e-01 -2.045243e+00 24 76 22
-4.060381e-01 -9.581233e-01 -2.402450e+00 92 24 1
-3.463422e-01 -9.442846e-01 -2.385548e+00 96 30 0
4.018776e-03 -9.382505e-01 -2.380988e+00 95 3 0
9.406116e-01 -7.823272e-01 -2.054285e+00 14 79 3
-4.906410e-01 -9.472385e-01 -2.436603e+00 157 96 39
-4.907697e-01 -9.372228e-01 -2.416994e+00 157 96 39
-7.915034e-01 -9.371379e-01 -2.443628e+00 186 125 77
4.775695e-01 -9.430105e-01 -2.440455e+00 81 34 6
1.103326e+00 -7.536755e-01 -2.043660e+00 64 82 19
1.103176e+00 -7.539936e-01 -2.043677e+00 64 82 19
1.057494e-01 -8.866160e-01 -2.357317e+00 92 1 3
6.790779e-02 -8.845919e-01 -2.356302e+00 140 41 28
8.753632e-02 -8.585278e-01 -2.316184e+00 142 45 27
9.074580e-02 -8.730406e-01 -2.346667e+00 142 45 27
1.099208e+00 -7.124111e-01 -2.028714e+00 187 188 115
-4.632967e-01 -8.441874e-01 -2.405807e+00 97 30 2
-3.022003e-01 -8.243242e-01 -2.381138e+00 115 48 0
-4.671113e-01 -8.237749e-01 -2.397875e+00 101 32 2
1.124765e+00 -6.874835e-01 -2.049594e+00 202 189 129
1.123285e+00 -6.850821e-01 -2.046235e+00 202 189 129
-5.121587e-01 -8.233168e-01 -2.436142e+00 154 88 20
-9.036933e-01 -8.469038e-01 -2.522559e+00 116 57 2
2.199347e+00 -6.693763e-01 -2.022491e+00 53 44 10
-7.609526e-01 -8.188592e-01 -2.465473e+00 161 95 32
-3.060425e-01 -7.781308e-01 -2.389713e+00 116 46 0
-3.061376e-01 -7.778825e-01 -2.389664e+00 116 46 0
2.164442e+00 -6.396558e-01 -1.995050e+00 209 194 150
-4.673408e-01 -7.714030e-01 -2.388542e+00 80 12 0
-4.679653e-01 -7.727701e-01 -2.391155e+00 80 12 0
-3.502709e-01 -7.575581e-01 -2.378084e+00 151 86 28
-3.502683e-01 -7.578961e-01 -2.378404e+00 151 86 28
-7.686555e-01 -7.696515e-01 -2.462170e+00 154 92 28
-9.127082e-01 -7.942659e-01 -2.539024e+00 121 61 5
-4.724692e-01 -7.428194e-01 -2.413883e+00 83 18 2
-4.690044e-01 -7.310029e-01 -2.386034e+00 83 18 2
-3.080599e-01 -7.207005e-01 -2.372202e+00 122 50 0
1.419505e+00 -6.045843e-01 -2.055548e+00 51 42 14
1.576468e-01 -7.116673e-01 -2.353411e+00 92 2 1
1.445516e+00 -5.853306e-01 -2.019940e+00 122 116 96
1.434862e+00 -5.788890e-01 -2.006005e+00 122 116 96
1.448991e+00 -6.015483e-01 -2.066046e+00 38 31 6
-3.530380e-01 -7.149260e-01 -2.397090e+00 153 87 28
-8.538412e-01 -7.411609e-01 -2.485898e+00 162 101 36
1.439961e+00 -6.132983e-01 -2.102801e+00 80 75 55
1.437530e+00 -6.118651e-01 -2.100426e+00 80 75 55
1.475391e+00 -5.955511e-01 -2.071517e+00 29 22 5
-4.193260e-01 -6.945047e-01 -2.378030e+00 80 14 1
-9.151012e-01 -7.316705e-01 -2.493354e+00 180 117 62
-9.126953e-01 -7.292727e-01 -2.483736e+00 180 117 62
-3.406754e-01 -6.929487e-01 -2.383033e+00 94 23 3
-3.403527e-01 -6.891080e-01 -2.375329e+00 94 23 3
-8.826005e-01 -7.242375e-01 -2.488166e+00 156 103 36
-7.432213e-01 -6.944523e-01 -2.442148e+00 99 37 0
-3.571807e-01 -6.762803e-01 -2.421900e+00 145 79 23
-8.032915e-01 -6.908671e-01 -2.481623e+00 98 36 0
-8.007425e-01 -6.859586e-01 -2.471330e+00 98 36 0
-4.257050e-01 -6.600907e-01 -2.420395e+00 81 11 1
-9.122727e-01 -6.838578e-01 -2.518998e+00 114 56 1
-7.934592e-01 -6.675375e-01 -2.472931e+00 160 97 30
-8.975229e-01 -6.726472e-01 -2.510265e+00 161 102 43
-5.025139e-01 -6.252416e-01 -2.395859e+00 158 97 35
-5.025139e-01 -6.252416e-01 -2.395859e+00 158 97 35
-8.316284e-01 -6.562368e-01 -2.487236e+00 162 100 32
-5.233426e-01 -6.169083e-01 -2.400067e+00 109 35 6
-5.233426e-01 -6.169083e-01 -2.400067e+00 109 35 6
-8.628680e-01 -6.543211e-01 -2.514226e+00 159 101 36
-3.598410e-01 -6.106499e-01 -2.395690e+00 147 83 20
-4.954750e-01 -5.715626e-01 -2.406274e+00 105 39 3
1.769589e-01 -5.567861e-01 -2.382304e+00 88 0 0
-7.641575e-01 -5.801128e-01 -2.470646e+00 157 91 23
3.958621e-02 -5.447934e-01 -2.359093e+00 79 1 0
-8.368277e-01 -5.840429e-01 -2.507069e+00 108 52 1
-8.362968e-01 -5.833832e-01 -2.504968e+00 108 52 1
1.104683e-01 -5.420049e-01 -2.367652e+00 139 40 18
-2.606435e-01 -5.297486e-01 -2.363241e+00 127 42 4
4.852551e-01 -5.651352e-01 -2.449126e+00 131 77 60
-8.719987e-01 -5.658010e-01 -2.507185e+00 105 49 1
-8.755839e-01 -5.695571e-01 -2.517726e+00 105 49 1
-8.299635e-01 -5.514281e-01 -2.477545e+00 162 96 28
-5.114903e-01 -5.275147e-01 -2.412801e+00 161 98 43
-5.113174e-01 -5.274295e-01 -2.411569e+00 161 98 43
-8.997716e-01 -5.600990e-01 -2.521398e+00 109 53 4
-6.241900e-02 -5.113794e-01 -2.366983e+00 85 3 0
-6.241900e-02 -5.113794e-01 -2.366983e+00 85 3 0
-9.206057e-01 -5.410995e-01 -2.527290e+00 111 52 4
-8.929826e-01 -5.347822e-01 -2.506853e+00 166 108 38
1.830556e+00 -4.179280e-01 -2.112100e+00 87 87 69
2.679757e-01 -4.943103e-01 -2.386319e+00 132 38 22
-1.269631e-01 -4.806243e-01 -2.380730e+00 126 31 1
-4.994252e-01 -4.815658e-01 -2.408611e+00 83 17 0
-4.994252e-01 -4.815658e-01 -2.408611e+00 83 17 0
-5.351531e-01 -4.903488e-01 -2.438655e+00 98 34 6
-1.128244e-01 -4.680213e-01 -2.377126e+00 183 98 61
-2.314579e-01 -4.767458e-01 -2.403673e+00 138 40 5
-5.153661e-01 -4.744241e-01 -2.406874e+00 160 100 37
-5.162658e-01 -4.763133e-01 -2.413270e+00 160 100 37
-5.653868e-01 -4.738811e-01 -2.415063e+00 162 96 27
-3.655617e-01 -4.497445e-01 -2.367954e+00 151 91 20
-3.660049e-01 -4.543677e-01 -2.381982e+00 151 91 20
1.843487e-01 -4.530129e-01 -2.369791e+00 76 0 0
