ply
format ascii 1.0
element face 0
property list uchar int vertex_indices
element vertex 939
property float x
property float y
property float z
property uchar diffuse_red
property uchar diffuse_green
property uchar diffuse_blue
end_header
-1.895977e-01 -1.189027e-01 -1.942826e+00 94 31 0
-2.050568e-01 -1.136341e-01 -1.942503e+00 105 44 2
-4.225737e-01 -1.186867e-01 -2.006505e+00 123 71 0
-1.981263e-01 -1.073471e-01 -1.945507e+00 153 99 24
-1.910608e-01 -7.454219e-02 -1.938230e+00 81 21 0
-4.205361e-01 -7.123576e-02 -2.002996e+00 155 110 37
1.892395e-02 -6.857527e-02 -1.972325e+00 96 32 0
-1.047218e-01 -4.801196e-02 -1.940912e+00 69 19 0
-4.221424e-01 -2.316281e-02 -1.991427e+00 162 111 46
3.325169e-01 -6.305116e-01 -1.611775e+00 30 28 19
3.749230e-01 -6.037011e-01 -1.675225e+00 109 108 95
2.169236e-01 -5.172352e-01 -1.783172e+00 36 108 36
2.193495e-01 -5.207943e-01 -1.787403e+00 36 108 36
2.569480e-01 -5.166872e-01 -1.788630e+00 112 138 91
2.813459e-01 -4.978466e-01 -1.805540e+00 39 84 22
4.850810e-01 -4.347959e-01 -1.845321e+00 119 101 64
-1.845040e-01 -4.395167e-01 -1.983485e+00 111 40 0
-1.853391e-01 -3.196713e-01 -1.979713e+00 112 46 0
-1.590123e-01 -2.382416e-01 -1.956474e+00 168 85 47
2.906604e-01 -3.562338e-01 -2.151978e+00 28 19 2
-4.103872e-01 -2.269894e-01 -2.031295e+00 152 108 35
-1.975701e-01 -1.796732e-01 -1.957259e+00 151 105 31
-1.971705e-01 -1.808424e-01 -1.959045e+00 151 105 31
-2.168623e-01 -1.772173e-01 -1.962747e+00 95 45 3
-2.107007e-01 -1.762143e-01 -1.962409e+00 150 102 31
-1.366105e-01 -1.410471e-01 -1.960178e+00 135 40 2
-2.798948e-01 -8.949449e-02 -1.946693e+00 159 109 41
-4.074515e-01 -6.577376e-02 -1.993846e+00 105 60 2
-4.304427e-01 -6.622289e-02 -2.010909e+00 152 110 38
1.198787e-04 -3.126444e-02 -1.964352e+00 139 80 24
-4.413996e-01 5.529167e-03 -2.004003e+00 178 96 58
2.780704e-01 -7.067052e-01 -1.752683e+00 51 44 22
3.326739e-01 -5.975266e-01 -1.695752e+00 85 86 72
9.280982e-01 -6.255544e-01 -1.716639e+00 42 37 18
9.342726e-01 -6.188132e-01 -1.719683e+00 54 48 16
2.391338e-01 -5.191607e-01 -1.785852e+00 144 170 124
2.543993e-01 -5.011749e-01 -1.808295e+00 210 226 161
2.945943e-01 -4.985053e-01 -1.799695e+00 170 198 143
2.355383e-01 -5.011383e-01 -1.808086e+00 27 104 19
3.254919e-01 -5.004644e-01 -1.807805e+00 21 65 6
2.943099e-01 -4.903973e-01 -1.807990e+00 171 193 134
5.169433e-01 -4.950210e-01 -1.801818e+00 64 62 50
3.465522e-01 -4.763477e-01 -1.813503e+00 45 84 26
3.521737e-01 -4.697530e-01 -1.811116e+00 51 65 10
3.731350e-01 -4.723891e-01 -1.817147e+00 54 72 12
3.727200e-01 -4.644737e-01 -1.819114e+00 143 104 55
4.856081e-01 -4.397234e-01 -1.839443e+00 124 101 69
5.279268e-01 -4.367272e-01 -1.888399e+00 21 17 6
-3.661530e-02 -4.158982e-01 -2.016138e+00 122 36 18
1.588375e-01 -4.294447e-01 -2.108306e+00 94 19 11
-1.452938e-01 -3.059701e-01 -1.967652e+00 167 69 42
-1.438143e-01 -3.098022e-01 -1.980332e+00 167 69 42
-2.211192e-01 -2.179590e-01 -1.964232e+00 148 97 18
-1.682304e-01 -1.692142e-01 -1.945788e+00 128 56 16
-2.017213e-01 -6.427756e-02 -1.927724e+00 152 99 34
2.378738e+00 1.281593e+00 -2.781864e+00 11 12 7
2.254004e-01 -4.024402e-01 -1.892407e+00 22 17 11
-4.599783e-01 -8.875642e-01 -1.898631e+00 25 79 30
-4.599783e-01 -8.875642e-01 -1.898631e+00 25 79 30
2.042916e-01 -4.962025e-01 -1.895246e+00 14 9 3
4.124447e-01 -5.087601e-01 -1.817485e+00 6 6 4
-7.376470e-02 -6.835897e-01 -1.822269e+00 20 82 17
-5.231103e-01 2.045416e-01 -2.093047e+00 183 168 127
8.077517e-02 3.225348e-01 -1.969189e+00 98 83 77
-8.334801e-03 -6.719363e-01 -1.843251e+00 18 78 18
-4.981720e-01 -8.326733e-01 -1.843162e+00 180 167 127
-3.180974e-01 -8.342642e-01 -1.885860e+00 32 82 28
-3.180974e-01 -8.342642e-01 -1.885860e+00 32 82 28
-4.506703e-01 -8.070622e-01 -1.849227e+00 19 78 24
-2.462847e-01 -7.886745e-01 -1.834265e+00 160 143 99
-1.890795e-01 -7.884480e-01 -1.865661e+00 170 153 108
9.452842e-01 -5.980855e-01 -1.747621e+00 178 164 125
1.322429e-01 -5.385045e-01 -2.044904e+00 23 3 0
-1.255780e-01 -7.541926e-01 -1.857448e+00 175 157 110
-6.174494e-02 -7.253170e-01 -1.854264e+00 179 159 110
-1.818359e-01 -6.946983e-01 -1.850625e+00 38 91 40
-1.600721e-01 -6.933708e-01 -1.862093e+00 29 83 27
-9.680069e-02 -6.562681e-01 -1.843955e+00 25 77 21
9.172151e-02 -5.818675e-01 -1.847410e+00 18 67 12
1.317839e-01 -4.760291e-01 -1.890430e+00 14 9 0
-2.220187e-01 -1.753363e-01 -1.955641e+00 101 58 19
-1.239922e-01 -7.023069e-01 -1.843236e+00 135 145 97
-6.098765e-02 -6.696804e-01 -1.832733e+00 122 138 87
6.354276e-02 -6.671507e-01 -1.846582e+00 174 156 107
2.736062e-02 -6.554494e-01 -1.839967e+00 166 177 120
2.685172e-01 -5.125666e-01 -1.827312e+00 195 204 149
-4.950988e-02 -4.061864e-01 -1.974477e+00 63 13 6
-2.644041e-01 -3.082715e-01 -1.949770e+00 96 46 10
-7.097989e-02 -1.370587e-01 -1.933114e+00 124 71 64
-3.377073e-03 -1.257632e-01 -1.930239e+00 63 20 3
-8.174040e-02 -4.359785e-02 -1.941692e+00 82 53 32
-8.174040e-02 -4.359785e-02 -1.941692e+00 82 53 32
-4.048606e-01 -4.016022e-02 -1.991828e+00 83 35 0
-2.943541e-02 -3.693367e-02 -1.942688e+00 60 24 9
-1.207416e-01 -2.294694e-02 -1.935167e+00 91 43 23
-3.827797e-01 4.904922e-03 -1.980517e+00 143 68 36
2.153035e+00 8.049739e-01 -2.500945e+00 15 15 2
4.280106e-01 -9.122375e-01 -1.770790e+00 22 19 1
3.171219e-01 -7.649287e-01 -1.682151e+00 90 84 56
4.487611e-01 -7.212228e-01 -1.709113e+00 71 67 44
5.491732e-01 -6.862015e-01 -1.730129e+00 59 57 44
6.576707e-01 -6.204618e-01 -1.733678e+00 74 73 53
6.502329e-01 -6.168301e-01 -1.727388e+00 74 73 53
1.582154e-01 -6.102843e-01 -1.834416e+00 34 48 13
3.939926e-02 -6.169209e-01 -1.849907e+00 180 200 128
9.056793e-01 -5.660894e-01 -1.761351e+00 187 174 130
7.769701e-01 -4.405769e-01 -1.824856e+00 187 174 131
-3.741219e-01 -4.634964e-01 -1.984030e+00 95 42 5
-3.741219e-01 -4.634964e-01 -1.984030e+00 95 42 5
-3.141777e-02 -3.914026e-01 -1.940219e+00 59 1 2
-4.013234e-02 -3.859648e-01 -1.938839e+00 119 32 13
1.528250e-03 -3.653820e-01 -1.942085e+00 63 2 2
-3.809230e-02 -3.152642e-01 -1.971381e+00 54 7 4
-3.794639e-02 -3.148099e-01 -1.968917e+00 54 7 4
-7.997737e-02 -3.058523e-01 -1.938228e+00 120 32 14
6.320098e-01 -2.831009e-01 -1.964243e+00 18 12 1
-3.085390e-01 -2.018140e-01 -1.973417e+00 134 82 17
-3.869599e-01 -2.047548e-01 -2.002169e+00 142 97 29
-3.732145e-01 -1.890679e-01 -1.990002e+00 134 85 26
-3.383970e-01 -1.765734e-01 -1.986098e+00 138 90 22
-3.368906e-01 -1.758902e-01 -1.978989e+00 138 90 22
4.332059e-02 -1.366578e-01 -1.983253e+00 65 23 7
2.757002e-02 -8.841691e-02 -1.954795e+00 86 40 16
-1.004464e-01 -9.024817e-02 -1.944095e+00 116 72 44
-1.004464e-01 -9.024817e-02 -1.944095e+00 116 72 44
-4.867959e-01 -5.397365e-02 -2.048985e+00 127 87 41
6.186534e-02 -3.491812e-02 -1.952861e+00 80 30 0
-3.377924e-01 -3.749797e-02 -1.951745e+00 125 34 7
-3.973004e-01 -2.244502e-02 -1.987363e+00 127 37 10
1.464817e-01 1.971885e-01 -1.990380e+00 199 183 142
-4.494019e-02 3.242359e-01 -2.017085e+00 54 42 56
-1.706029e-02 3.264112e-01 -2.011086e+00 55 39 54
-1.953864e-01 3.344645e-01 -2.043162e+00 52 41 58
-1.029860e-01 3.477993e-01 -2.042171e+00 97 82 88
-1.030946e-01 3.492836e-01 -2.047057e+00 97 82 88
-4.809862e-01 -8.272236e-01 -1.840543e+00 38 92 5
-4.093175e-01 -8.150206e-01 -1.870205e+00 173 200 144
-8.883275e-02 -2.204819e-01 -1.121863e+00 42 52 4
-1.497358e-01 -7.404668e-01 -1.855859e+00 28 71 2
9.727201e-01 -6.613936e-01 -1.729959e+00 175 166 112
-8.536361e-02 -1.791893e-01 -1.069703e+00 168 194 134
9.617091e-01 -6.456847e-01 -1.721349e+00 177 169 121
7.135891e-01 -5.782834e-01 -1.726007e+00 73 72 50
7.148482e-01 -5.790019e-01 -1.727072e+00 73 72 50
1.237100e-01 -5.329813e-01 -1.973291e+00 139 107 77
-3.711041e-01 -5.076382e-01 -1.992237e+00 100 50 15
-3.840368e-01 -5.029528e-01 -1.997424e+00 93 40 6
-3.840368e-01 -5.029528e-01 -1.997424e+00 93 40 6
3.395530e-02 -4.868104e-01 -1.958448e+00 65 2 2
-3.761085e-01 -4.837552e-01 -1.990231e+00 95 41 3
-3.761085e-01 -4.837552e-01 -1.990231e+00 95 41 3
-2.584286e-01 -4.652471e-01 -1.958935e+00 89 24 0
-3.915781e-01 -4.739667e-01 -1.991371e+00 87 35 0
-2.311073e-01 -4.596488e-01 -1.953910e+00 133 69 28
-4.068729e-01 -4.517989e-01 -1.998371e+00 96 46 4
-4.068729e-01 -4.517989e-01 -1.998371e+00 96 46 4
-1.879243e-01 -4.351437e-01 -1.950337e+00 136 73 20
-1.900259e-01 -3.968201e-01 -1.940748e+00 133 71 18
-1.903318e-01 -3.997257e-01 -1.953452e+00 133 71 18
-5.600142e-02 -3.639872e-01 -1.952113e+00 63 0 3
7.151393e-02 -3.380757e-01 -1.969289e+00 112 36 24
7.151393e-02 -3.380757e-01 -1.969289e+00 112 36 24
-1.854064e-01 -3.301051e-01 -1.951042e+00 95 28 1
-2.436073e-01 -3.303555e-01 -1.954250e+00 82 31 0
-2.437610e-01 -3.315316e-01 -1.957100e+00 82 31 0
-8.635483e-02 -3.129911e-01 -1.942545e+00 70 1 0
-7.635044e-03 -2.347058e-01 -1.929699e+00 142 56 36
-5.040901e-03 -2.377058e-01 -1.951592e+00 142 56 36
5.524523e-02 -2.352939e-01 -1.951333e+00 139 50 32
5.526792e-02 -2.352875e-01 -1.951387e+00 139 50 32
-3.763303e-01 -2.055668e-01 -1.983730e+00 139 93 29
-4.247175e-01 -2.024832e-01 -2.017221e+00 90 45 1
-4.247175e-01 -2.024832e-01 -2.017221e+00 90 45 1
-3.483870e-01 -1.944415e-01 -1.980619e+00 135 86 27
-3.659536e-01 -1.680686e-01 -1.979379e+00 140 95 27
-3.667969e-02 -1.447847e-01 -1.959367e+00 122 66 13
-3.934463e-01 -1.423619e-01 -1.995022e+00 143 95 30
-4.074786e-01 -1.360852e-01 -1.987858e+00 134 90 28
-4.024957e-01 -1.073234e-01 -1.995405e+00 100 58 1
-3.777186e-02 -9.068848e-02 -1.941556e+00 128 66 21
-1.096535e-01 -7.058139e-02 -1.944355e+00 68 17 5
-1.097137e-01 -7.114535e-02 -1.941346e+00 68 17 5
-4.279252e-01 -6.643332e-02 -2.003650e+00 139 100 33
-3.568316e-01 -3.368484e-02 -1.977372e+00 127 37 8
-4.253937e-02 -3.064252e-02 -1.943485e+00 128 77 28
-4.253937e-02 -3.064252e-02 -1.943485e+00 128 77 28
-3.654857e-01 -3.095485e-02 -1.981762e+00 124 36 6
-3.739852e-01 -2.958181e-02 -1.973310e+00 126 39 8
-1.075537e-01 -1.176632e-02 -1.930993e+00 146 88 22
-1.071957e-01 -1.171836e-02 -1.931469e+00 146 88 22
-5.150091e-01 5.542771e-02 -2.109100e+00 132 93 47
9.543200e-02 4.058515e-02 -1.951286e+00 156 104 54
9.543200e-02 4.058515e-02 -1.951286e+00 156 104 54
-3.870791e-01 3.641979e-01 -2.070396e+00 56 44 52
1.985552e+00 7.913198e-01 -2.441863e+00 110 98 76
5.448318e-01 -9.663769e-01 -1.738724e+00 16 13 0
5.261234e-01 -9.368956e-01 -1.744745e+00 62 62 50
4.213963e-01 -9.030142e-01 -1.755804e+00 19 16 2
5.547050e-01 -8.404864e-01 -1.716144e+00 85 85 75
5.681645e-01 -8.547239e-01 -1.730457e+00 85 85 75
9.509397e-01 -8.531363e-01 -1.731879e+00 165 157 111
-5.098601e-01 -8.751369e-01 -1.880068e+00 160 149 104
-4.089475e-01 -8.668273e-01 -1.873129e+00 133 150 95
-4.089475e-01 -8.668273e-01 -1.873129e+00 133 150 95
-3.782312e-01 -8.438869e-01 -1.848152e+00 132 145 95
-5.029627e-01 -8.629693e-01 -1.877648e+00 205 217 154
9.503635e-01 -8.043604e-01 -1.736953e+00 70 68 47
-4.406785e-01 -8.336936e-01 -1.871200e+00 59 141 55
-3.036792e-01 -8.292288e-01 -1.870233e+00 49 68 9
4.653485e-01 -7.385791e-01 -1.732547e+00 72 67 48
4.130766e-01 -7.213560e-01 -1.745311e+00 51 51 43
4.045216e-01 -7.117150e-01 -1.733259e+00 51 51 43
-8.586249e-02 -7.196688e-01 -1.852500e+00 143 156 105
-9.100865e-02 -1.787448e-01 -1.067746e+00 190 177 146
4.250360e-01 -6.547831e-01 -1.745676e+00 91 91 79
-1.166196e-01 -6.900329e-01 -1.857011e+00 132 204 120
-1.167762e-01 -6.889123e-01 -1.855136e+00 132 204 120
-1.020551e-02 -6.443939e-01 -1.846845e+00 19 36 1
9.458457e-01 -6.040635e-01 -1.736448e+00 186 171 137
9.315289e-01 -5.967045e-01 -1.731009e+00 187 171 138
1.075243e-01 -6.368271e-01 -1.840690e+00 43 52 1
6.968029e-02 -6.321741e-01 -1.840548e+00 24 70 20
2.683503e-01 -6.028229e-01 -1.853745e+00 19 14 3
1.161306e-01 -5.893139e-01 -1.841684e+00 34 47 4
6.021896e-02 -5.866137e-01 -1.856379e+00 159 152 116
8.942466e-01 -5.572505e-01 -1.765485e+00 53 44 20
1.598757e-01 -5.498702e-01 -1.839601e+00 8 50 0
8.619523e-01 -5.272869e-01 -1.776799e+00 45 34 11
7.817605e-01 -4.951642e-01 -1.727100e+00 63 56 46
2.476412e-01 -5.254642e-01 -1.832534e+00 25 77 2
-1.770954e-01 -5.510752e-01 -1.946101e+00 152 83 44
-2.076182e-01 -5.447545e-01 -1.937828e+00 162 101 57
1.615750e-01 -5.546375e-01 -1.962481e+00 108 88 59
2.805760e-01 -4.983196e-01 -1.830410e+00 23 63 8
7.511590e-01 -4.620701e-01 -1.735928e+00 47 37 15
-4.775810e-02 -5.260511e-01 -1.951973e+00 71 3 1
3.630098e-01 -4.778415e-01 -1.826782e+00 28 40 2
-3.158243e-01 -5.197854e-01 -1.975732e+00 78 15 1
8.192952e-01 -4.767550e-01 -1.827080e+00 190 178 137
8.074450e-01 -4.743239e-01 -1.822990e+00 45 36 15
3.209452e-01 -4.664842e-01 -1.839087e+00 17 16 0
-3.508085e-01 -5.101406e-01 -1.983801e+00 82 28 0
3.788843e-02 -4.959837e-01 -1.961346e+00 113 29 18
-2.065490e-01 -4.869022e-01 -1.949750e+00 138 76 29
-2.583548e-01 -4.908401e-01 -1.968729e+00 82 24 3
-3.994895e-01 -4.870315e-01 -2.001610e+00 139 86 32
-3.994895e-01 -4.870315e-01 -2.001610e+00 139 86 32
-4.262346e-01 -4.933018e-01 -2.020730e+00 160 97 51
-4.247388e-01 -4.914504e-01 -2.014759e+00 160 97 51
-3.556096e-01 -4.714248e-01 -1.982801e+00 82 19 1
-1.991587e-01 -4.592432e-01 -1.949385e+00 134 68 19
-1.825776e-01 -4.458593e-01 -1.946812e+00 101 32 4
-3.757978e-01 -4.571082e-01 -1.988846e+00 140 78 29
-1.995120e-01 -4.388313e-01 -1.946264e+00 134 71 23
-3.057145e-01 -4.434794e-01 -1.969603e+00 82 17 1
-4.169078e-01 -4.443725e-01 -2.002625e+00 95 40 0
-3.659222e-01 -4.516595e-01 -2.031898e+00 80 20 0
-3.388854e-01 -4.322724e-01 -1.983117e+00 139 77 32
-2.645076e-01 -4.240540e-01 -1.959160e+00 92 25 0
-2.263756e-01 -4.164242e-01 -1.950598e+00 61 3 0
-2.636653e-01 -4.114046e-01 -1.957151e+00 86 15 2
-2.636451e-01 -4.113065e-01 -1.956576e+00 86 15 2
-2.038886e-01 -4.082554e-01 -1.973637e+00 129 68 21
-1.957976e-01 -3.942360e-01 -1.944135e+00 65 5 0
-2.657830e-01 -3.940586e-01 -1.962184e+00 87 21 2
-2.658209e-01 -3.940024e-01 -1.962837e+00 87 21 2
-9.802603e-02 -3.838750e-01 -1.932057e+00 75 4 4
-3.562948e-01 -3.952529e-01 -1.982554e+00 86 21 0
-3.778516e-01 -3.900999e-01 -1.991169e+00 81 25 9
-2.108391e-01 -3.697180e-01 -1.947841e+00 141 81 35
-8.559197e-02 -3.671039e-01 -1.940176e+00 70 4 2
-8.559197e-02 -3.671039e-01 -1.940176e+00 70 4 2
-4.134112e-01 -3.766995e-01 -2.005681e+00 91 38 0
-2.670644e-01 -3.651066e-01 -1.957778e+00 89 18 2
-2.671506e-01 -3.654808e-01 -1.959087e+00 89 18 2
-4.153387e-01 -3.666887e-01 -2.008602e+00 143 91 26
6.052646e-02 -3.555634e-01 -1.946348e+00 119 31 18
5.051023e-02 -3.563402e-01 -1.967024e+00 59 0 0
1.558625e-01 -3.632707e-01 -1.994385e+00 22 10 4
-2.295026e-02 -3.271046e-01 -1.941608e+00 75 5 6
6.544988e-01 -3.203533e-01 -1.919122e+00 32 24 7
-2.585653e-02 -3.075485e-01 -1.934813e+00 63 1 1
-5.877947e-02 -2.968529e-01 -1.952299e+00 60 3 6
6.792600e-01 -3.008297e-01 -1.983894e+00 198 186 138
6.676856e-02 -2.829778e-01 -2.009901e+00 113 34 24
6.578327e-01 -2.817618e-01 -2.006137e+00 192 177 146
-3.653078e-01 -2.789843e-01 -1.999072e+00 152 96 41
-3.704487e-01 -2.825360e-01 -2.019201e+00 152 96 41
6.775572e-02 -2.615784e-01 -1.924517e+00 116 31 23
-4.330096e-01 -2.727442e-01 -2.010382e+00 164 106 55
-4.330096e-01 -2.727442e-01 -2.010382e+00 164 106 55
-2.158325e-01 -2.516987e-01 -1.950337e+00 83 27 4
-1.886324e-01 -2.441987e-01 -1.950276e+00 60 1 0
-4.318124e-01 -2.489618e-01 -2.003433e+00 165 107 55
-4.318124e-01 -2.489618e-01 -2.003433e+00 165 107 55
-2.148678e-01 -2.392221e-01 -1.948722e+00 77 16 1
-2.161796e-01 -2.406190e-01 -1.961896e+00 77 16 1
-1.972903e-01 -2.386164e-01 -1.958132e+00 148 96 48
-1.886199e-01 -2.236133e-01 -1.949558e+00 61 5 0
-2.673833e-01 -2.237136e-01 -1.965914e+00 134 87 25
-4.361412e-02 -2.123984e-01 -1.939144e+00 114 20 0
-2.035807e-01 -1.918310e-01 -1.942406e+00 91 36 2
-2.890016e-01 -1.917542e-01 -1.963595e+00 96 39 0
7.032558e-02 -1.856769e-01 -1.949076e+00 135 48 29
-2.213913e-01 -1.844467e-01 -1.945656e+00 136 88 21
-4.815184e-01 -1.835090e-01 -2.043139e+00 134 95 51
-3.260094e-01 -1.760259e-01 -1.975917e+00 138 91 26
-3.131537e-01 -1.688898e-01 -1.970996e+00 81 37 0
-8.427049e-02 -1.584984e-01 -1.938976e+00 56 7 0
-3.508476e-01 -1.546513e-01 -1.982422e+00 136 90 25
-2.157629e-01 -1.307639e-01 -1.948930e+00 95 34 5
-4.208674e-01 -1.161440e-01 -2.000171e+00 109 61 2
-7.737793e-02 -1.053023e-01 -1.940384e+00 68 21 3
-2.392316e-01 -9.521205e-02 -1.951312e+00 67 16 2
-2.394341e-01 -9.589406e-02 -1.952408e+00 67 16 2
3.750323e-02 -8.192834e-02 -1.947127e+00 70 8 0
3.736305e-02 -8.163670e-02 -1.946287e+00 70 8 0
-1.152728e-01 -7.969752e-02 -1.941715e+00 133 77 18
-1.763437e-01 -5.733500e-02 -1.948151e+00 146 76 32
-1.394298e-01 -4.908108e-02 -1.947346e+00 119 37 7
-4.586946e-01 -4.987638e-02 -1.998521e+00 111 51 10
-2.679500e-01 -4.842998e-02 -1.945323e+00 124 33 3
-5.569492e-02 -4.539746e-02 -1.940801e+00 78 32 16
-7.085607e-02 -3.984161e-02 -1.943483e+00 58 17 0
-3.650422e-01 -3.886163e-02 -1.981402e+00 154 106 49
-1.399507e-01 -3.534660e-02 -1.948016e+00 120 34 4
-1.217624e-01 -1.748285e-02 -1.947887e+00 70 15 2
-3.801797e-01 6.195441e-03 -1.985564e+00 154 76 43
9.452622e-02 2.363236e-02 -1.946764e+00 94 44 0
9.280156e-02 2.277567e-02 -1.939907e+00 94 44 0
8.493936e-02 3.440612e-02 -1.939410e+00 157 105 47
-3.085420e-01 1.319049e-01 -1.991157e+00 57 56 62
-4.239461e-02 3.067599e-01 -1.991992e+00 106 92 90
-7.094534e-03 3.307995e-01 -2.017249e+00 109 94 92
-7.216906e-03 3.288245e-01 -2.011913e+00 109 94 92
-3.079886e-01 3.526075e-01 -2.068341e+00 96 83 92
-3.355052e-01 3.603153e-01 -2.079525e+00 48 37 43
-2.357260e-02 3.465699e-01 -2.023963e+00 56 41 46
-2.357260e-02 3.465699e-01 -2.023963e+00 56 41 46
-3.621429e-01 3.680886e-01 -2.074851e+00 78 72 87
-3.621429e-01 3.680886e-01 -2.074851e+00 78 72 87
-4.939201e-01 3.783729e-01 -2.093312e+00 47 33 33
-4.886287e-01 3.715851e-01 -2.077616e+00 47 33 33
-3.371894e-02 4.086163e-01 -2.024957e+00 34 26 39
1.877611e+00 6.159460e-01 -2.192196e+00 126 114 93
4.284004e-01 -9.111043e-01 -1.737791e+00 47 41 17
4.476046e-01 -9.289347e-01 -1.762784e+00 81 75 58
-4.777909e-01 -8.960530e-01 -1.873249e+00 71 85 47
-4.685893e-01 -8.673722e-01 -1.843874e+00 166 175 132
-4.771652e-01 -8.609337e-01 -1.836471e+00 101 97 56
-4.944204e-01 -8.776342e-01 -1.867817e+00 89 90 41
-4.983124e-01 -8.758602e-01 -1.873892e+00 151 165 98
-4.135320e-01 -8.682159e-01 -1.869893e+00 65 80 42
-4.369103e-01 -8.653103e-01 -1.868640e+00 46 97 46
-4.530114e-01 -8.628610e-01 -1.874117e+00 41 95 46
-3.692720e-01 -8.508842e-01 -1.858158e+00 103 107 56
-3.483622e-01 -8.537980e-01 -1.870209e+00 118 117 66
-4.794712e-01 -8.432793e-01 -1.880168e+00 38 73 15
-4.402170e-01 -8.135048e-01 -1.844704e+00 47 93 2
4.457278e-01 -7.451843e-01 -1.725748e+00 33 28 8
-3.991672e-01 -8.161423e-01 -1.866624e+00 176 195 146
-3.947048e-01 -7.972270e-01 -1.842766e+00 75 109 61
-3.047430e-01 -8.079167e-01 -1.861477e+00 45 83 43
-2.874432e-01 -8.095890e-01 -1.865998e+00 158 171 126
3.404130e-01 -8.033236e-01 -1.826724e+00 25 17 2
-9.196717e-02 -1.806202e-01 -1.063818e+00 25 67 0
-3.153659e-01 -7.789910e-01 -1.842261e+00 176 195 153
-2.860309e-01 -7.955084e-01 -1.861338e+00 19 64 0
-3.407771e-01 -7.918252e-01 -1.867335e+00 57 93 48
-3.650677e-01 -7.793965e-01 -1.871112e+00 195 208 178
-2.385766e-01 -7.715134e-01 -1.860076e+00 43 64 14
3.176525e-01 -7.674846e-01 -1.828457e+00 36 27 10
-2.047103e-01 -7.270172e-01 -1.860072e+00 187 206 137
-2.047103e-01 -7.270172e-01 -1.860072e+00 187 206 137
5.735009e-01 -6.372720e-01 -1.705247e+00 54 52 41
-1.176390e-01 -7.118533e-01 -1.851942e+00 57 68 30
-1.010636e-01 -7.086298e-01 -1.852020e+00 11 51 0
-1.206932e-01 -7.078313e-01 -1.853139e+00 180 191 133
-4.896919e-02 -6.942273e-01 -1.848291e+00 45 84 37
3.860601e-01 -6.557531e-01 -1.773640e+00 69 69 59
2.701166e-01 -7.015037e-01 -1.861434e+00 35 28 10
-1.163597e-01 -6.809267e-01 -1.850625e+00 24 106 14
-1.155411e-01 -6.699775e-01 -1.863494e+00 75 93 55
-1.199147e-01 -6.668523e-01 -1.862901e+00 189 182 146
9.408324e-01 -6.146192e-01 -1.731696e+00 45 38 22
9.619569e-03 -6.553893e-01 -1.845974e+00 50 66 23
-1.047864e-01 -6.613586e-01 -1.861754e+00 180 175 134
-4.969583e-03 -6.548511e-01 -1.848212e+00 43 76 30
-7.607952e-02 -1.677231e-01 -1.055160e+00 149 172 115
3.094955e-02 -6.353303e-01 -1.847192e+00 115 189 112
2.377541e-03 -6.321086e-01 -1.844718e+00 49 134 45
5.822389e-02 -6.278022e-01 -1.846504e+00 46 79 24
2.304690e-01 -6.547583e-01 -1.891487e+00 94 83 59
4.382410e-02 -6.217010e-01 -1.847728e+00 41 81 30
7.657658e-02 -6.155506e-01 -1.840820e+00 25 73 1
1.776263e-01 -6.234889e-01 -1.853956e+00 99 93 53
1.087549e-02 -6.115784e-01 -1.854048e+00 74 90 48
1.660657e-01 -6.083935e-01 -1.841119e+00 128 141 103
5.691513e-02 -6.086569e-01 -1.847743e+00 28 91 5
3.826042e-01 -5.849008e-01 -1.802865e+00 44 43 38
1.592362e-01 -5.956351e-01 -1.836659e+00 21 65 0
6.591275e-02 -5.884873e-01 -1.855133e+00 54 82 41
1.485117e-01 -5.769386e-01 -1.839969e+00 125 199 121
4.250088e-01 -5.573374e-01 -1.798166e+00 76 74 61
8.066312e-01 -5.238392e-01 -1.719058e+00 52 49 42
1.511203e-01 -5.527199e-01 -1.824744e+00 34 92 8
2.702206e-01 -5.539440e-01 -1.833571e+00 31 49 25
1.325875e-01 -5.558487e-01 -1.849366e+00 154 165 117
2.310152e-01 -5.263132e-01 -1.823686e+00 204 214 162
2.344829e-01 -5.215724e-01 -1.830550e+00 32 75 2
3.066147e-01 -5.156054e-01 -1.820472e+00 50 95 40
3.688668e-01 -5.211421e-01 -1.830098e+00 42 54 39
2.473630e-01 -5.177429e-01 -1.831035e+00 94 171 88
2.485258e-01 -5.190837e-01 -1.833506e+00 94 171 88
2.483301e-01 -5.188967e-01 -1.833047e+00 94 171 88
2.730467e-01 -5.116907e-01 -1.831147e+00 156 180 111
4.981840e-01 -5.006693e-01 -1.797803e+00 69 66 59
2.959300e-01 -5.071321e-01 -1.828471e+00 171 191 140
3.896779e-01 -5.073438e-01 -1.831489e+00 21 27 10
2.963701e-01 -4.990221e-01 -1.826417e+00 192 209 142
2.976949e-01 -5.004578e-01 -1.828894e+00 192 209 142
3.959561e-01 -4.992030e-01 -1.823395e+00 83 74 60
2.912103e-01 -4.981869e-01 -1.826155e+00 84 100 29
3.088931e-01 -4.985460e-01 -1.827875e+00 35 80 11
-2.928603e-01 -5.388151e-01 -1.949339e+00 158 104 61
2.866205e-01 -4.982792e-01 -1.832456e+00 183 209 134
2.525532e-01 -4.963613e-01 -1.835052e+00 186 202 149
3.780631e-01 -4.939228e-01 -1.824560e+00 33 64 15
3.780631e-01 -4.939228e-01 -1.824560e+00 33 64 15
2.872044e-01 -4.954243e-01 -1.837285e+00 9 52 0
-6.429008e-02 -5.216453e-01 -1.941041e+00 77 3 0
-2.550546e-01 -5.254443e-01 -1.962388e+00 149 90 40
-2.647516e-01 -5.255010e-01 -1.964985e+00 141 75 33
-2.929289e-02 -5.183771e-01 -1.945886e+00 125 49 38
3.750256e-01 -4.730676e-01 -1.820044e+00 49 67 10
-3.079485e-01 -5.175226e-01 -1.964560e+00 150 79 27
3.471911e-01 -4.703049e-01 -1.829594e+00 183 212 138
2.269290e-03 -5.167694e-01 -1.963763e+00 74 1 1
5.719777e-01 -4.588466e-01 -1.796725e+00 62 59 50
3.650269e-01 -4.692559e-01 -1.832433e+00 47 77 14
-2.328222e-01 -5.040358e-01 -1.977974e+00 133 70 30
-2.240433e-01 -4.958938e-01 -1.957839e+00 74 9 1
6.649156e-01 -4.541485e-01 -1.813727e+00 82 79 70
6.652547e-01 -4.545062e-01 -1.814616e+00 82 79 70
1.348874e-01 -5.095138e-01 -1.990638e+00 104 71 39
2.883914e-02 -4.868460e-01 -1.941387e+00 79 1 0
-3.460533e-01 -4.913671e-01 -1.978328e+00 86 27 0
7.725474e-01 -4.474713e-01 -1.818012e+00 73 69 33
6.021297e-01 -4.349407e-01 -1.792090e+00 69 66 57
-2.456127e-01 -4.837006e-01 -1.958958e+00 76 15 1
-4.826738e-01 -5.202526e-01 -2.070828e+00 106 55 14
-2.659014e-01 -4.818513e-01 -1.961329e+00 92 22 1
-2.664325e-01 -4.830666e-01 -1.964339e+00 92 22 1
1.252893e-03 -4.696603e-01 -1.952662e+00 76 2 3
-2.107827e-01 -4.607760e-01 -1.938876e+00 94 30 1
-2.517641e-01 -4.687840e-01 -1.963644e+00 142 86 39
-4.173253e-03 -4.675178e-01 -1.953448e+00 115 32 19
-4.173253e-03 -4.675178e-01 -1.953448e+00 115 32 19
6.449080e-01 -4.256908e-01 -1.815729e+00 69 66 57
-2.306952e-01 -4.568932e-01 -1.955644e+00 127 67 34
-2.303651e-01 -4.551603e-01 -1.951218e+00 127 67 34
4.865194e-01 -4.222774e-01 -1.839374e+00 75 72 54
-2.444702e-01 -4.513730e-01 -1.954685e+00 77 19 3
-2.554263e-01 -4.463197e-01 -1.959408e+00 87 19 0
-2.290058e-01 -4.429251e-01 -1.952266e+00 128 58 22
-2.504278e-01 -4.326592e-01 -1.958289e+00 76 13 1
-2.634565e-01 -4.315529e-01 -1.958713e+00 90 21 0
-2.562518e-01 -4.249719e-01 -1.949828e+00 142 83 39
-1.948415e-01 -4.128968e-01 -1.943035e+00 71 5 3
-2.512105e-01 -4.127240e-01 -1.955925e+00 87 23 2
-2.508516e-01 -4.121448e-01 -1.954444e+00 87 23 2
-2.704861e-01 -4.119206e-01 -1.964586e+00 141 70 29
5.829012e-01 -3.794063e-01 -1.825490e+00 92 87 81
-4.155958e-01 -4.222350e-01 -2.008621e+00 139 88 34
-2.519294e-01 -4.062531e-01 -1.957729e+00 83 17 1
-2.520014e-01 -4.063818e-01 -1.957821e+00 83 17 1
-4.041528e-02 -3.924455e-01 -1.934055e+00 117 46 31
-2.217821e-01 -3.932617e-01 -1.946834e+00 142 86 48
-2.521407e-01 -3.936065e-01 -1.957664e+00 77 16 0
-2.593133e-01 -3.897962e-01 -1.959405e+00 143 85 40
-2.590257e-01 -3.895527e-01 -1.958827e+00 143 85 40
-7.589374e-02 -3.845328e-01 -1.943235e+00 78 4 2
-2.544922e-01 -3.867935e-01 -1.959350e+00 84 19 1
-4.165809e-01 -3.822756e-01 -1.989944e+00 102 46 0
-2.660123e-01 -3.734795e-01 -1.958532e+00 88 24 0
-2.053400e-01 -3.671836e-01 -1.945216e+00 80 18 6
-9.704760e-03 -3.643804e-01 -1.937319e+00 55 1 1
-1.725360e-01 -3.642129e-01 -1.941987e+00 126 75 22
1.072725e-02 -3.633080e-01 -1.950772e+00 128 47 37
1.080698e-02 -3.640736e-01 -1.950528e+00 128 47 37
-6.344833e-02 -3.629041e-01 -1.946290e+00 125 49 38
-5.019743e-02 -3.595949e-01 -1.941490e+00 125 46 34
-5.025293e-02 -3.586948e-01 -1.939777e+00 125 46 34
-1.470021e-01 -3.577493e-01 -1.938445e+00 123 39 13
1.392528e-01 -3.685431e-01 -1.970906e+00 25 9 1
-1.965112e-01 -3.551332e-01 -1.943203e+00 75 14 2
-3.780796e-02 -3.539545e-01 -1.940688e+00 63 4 2
-2.501548e-01 -3.518700e-01 -1.960241e+00 142 89 53
-2.760081e-01 -3.445879e-01 -1.962102e+00 93 35 4
-2.678903e-01 -3.344701e-01 -1.961353e+00 82 17 0
-2.681527e-01 -3.346331e-01 -1.962654e+00 82 17 0
-2.065145e-01 -3.314389e-01 -1.953279e+00 60 0 0
-2.400824e-01 -3.300339e-01 -1.955430e+00 86 34 1
-1.292329e-01 -3.236761e-01 -1.936800e+00 130 34 12
-2.542402e-01 -3.268170e-01 -1.954043e+00 87 27 4
-2.698497e-01 -3.269615e-01 -1.962243e+00 82 18 0
-2.298944e-01 -3.197173e-01 -1.953375e+00 64 8 0
-2.358081e-01 -3.198035e-01 -1.953024e+00 132 81 42
-2.355763e-01 -3.191693e-01 -1.950082e+00 132 81 42
-2.415021e-01 -3.188646e-01 -1.955764e+00 69 14 0
-2.080270e-01 -3.182635e-01 -1.952944e+00 73 10 0
-4.199915e-01 -3.253400e-01 -1.995420e+00 109 52 7
-1.092787e-01 -3.167522e-01 -1.967514e+00 104 20 1
-2.293590e-01 -3.111806e-01 -1.952906e+00 91 35 3
-1.295690e-01 -3.150672e-01 -1.981598e+00 107 29 3
-2.513316e-01 -3.071688e-01 -1.955990e+00 90 37 3
-2.513233e-01 -3.072249e-01 -1.956154e+00 90 37 3
-4.247671e-01 -3.157852e-01 -2.007649e+00 120 61 5
-1.404343e-01 -3.106602e-01 -1.980286e+00 111 28 2
-1.407142e-01 -3.103743e-01 -1.979692e+00 111 28 2
5.343350e-02 -3.132258e-01 -2.006110e+00 78 0 0
4.567859e-02 -3.053614e-01 -1.958833e+00 78 0 0
3.827212e-02 -2.999239e-01 -1.943080e+00 115 34 27
1.914841e-02 -2.973675e-01 -1.947043e+00 54 1 1
-5.180377e-02 -2.945085e-01 -1.931480e+00 60 2 1
-5.990033e-02 -2.907134e-01 -1.939577e+00 63 3 3
6.621397e-01 -2.925141e-01 -1.974738e+00 80 67 38
-4.239100e-01 -2.875103e-01 -2.000067e+00 110 52 4
-3.295196e-01 -2.767956e-01 -1.969614e+00 81 34 5
-3.488167e-01 -2.749564e-01 -1.976836e+00 149 92 40
-4.234142e-01 -2.717749e-01 -1.998813e+00 93 33 0
-4.275713e-01 -2.744799e-01 -2.010894e+00 93 33 0
-2.779062e-02 -2.583375e-01 -1.936905e+00 101 14 1
-2.015771e-01 -2.601902e-01 -1.952633e+00 72 17 3
-3.886381e-01 -2.630368e-01 -1.988997e+00 87 44 8
-1.046379e-01 -2.514912e-01 -1.939155e+00 115 24 0
-4.582845e-01 -2.551405e-01 -2.024090e+00 118 48 10
-2.195526e-01 -2.369191e-01 -1.952873e+00 129 74 18
-4.660330e-01 -2.437077e-01 -2.020187e+00 124 76 31
-4.002545e-01 -2.207300e-01 -1.992381e+00 142 98 35
-4.552508e-01 -2.205456e-01 -2.016057e+00 107 39 2
-3.403352e-01 -2.033982e-01 -1.976637e+00 78 37 2
-2.013396e-01 -1.998126e-01 -1.948634e+00 88 27 0
2.721210e-02 -1.955803e-01 -1.944351e+00 106 16 0
-2.203028e-01 -1.940907e-01 -1.952160e+00 133 79 31
-3.495174e-01 -1.964794e-01 -1.980323e+00 136 90 35
-3.734704e-01 -1.949863e-01 -1.979631e+00 74 30 0
-3.134958e-01 -1.927831e-01 -1.967567e+00 99 40 1
-3.260419e-01 -1.907030e-01 -1.975839e+00 113 55 3
-3.195128e-01 -1.866128e-01 -1.965269e+00 148 93 30
-1.979579e-01 -1.789554e-01 -1.957198e+00 148 102 54
-1.975906e-01 -1.791344e-01 -1.954300e+00 148 102 54
-2.164950e-01 -1.782106e-01 -1.954301e+00 64 16 1
-3.448210e-01 -1.711877e-01 -1.980891e+00 139 92 39
-8.361841e-02 -1.644055e-01 -1.935390e+00 124 66 23
-9.643667e-02 -1.626314e-01 -1.946845e+00 83 25 2
-3.862631e-01 -1.663563e-01 -1.984270e+00 108 55 6
-3.873124e-01 -1.666105e-01 -1.988406e+00 108 55 6
-9.131695e-02 -1.612057e-01 -1.941279e+00 142 90 40
-8.389025e-02 -1.550519e-01 -1.942991e+00 64 13 1
-3.394350e-01 -1.575427e-01 -1.974553e+00 138 91 34
-3.649011e-01 -1.573319e-01 -1.982583e+00 78 35 1
-9.658984e-02 -1.451140e-01 -1.938565e+00 84 28 6
-3.441054e-02 -1.306604e-01 -1.934108e+00 63 19 2
6.345832e-02 -1.273749e-01 -1.954496e+00 49 2 1
-1.737210e-01 -1.302198e-01 -1.949174e+00 169 114 70
-3.257840e-01 -1.258460e-01 -1.975328e+00 97 50 1
-4.018954e-01 -1.272557e-01 -1.993592e+00 142 91 35
-4.018137e-01 -1.271515e-01 -1.993076e+00 142 91 35
-3.946601e-03 -1.224367e-01 -1.932757e+00 71 21 7
-3.946601e-03 -1.224367e-01 -1.932757e+00 71 21 7
-2.042131e-01 -1.192579e-01 -1.951335e+00 81 21 2
-2.190707e-01 -1.192142e-01 -1.954787e+00 76 11 3
-2.184302e-01 -1.190579e-01 -1.949745e+00 76 11 3
-3.896065e-01 -1.177537e-01 -1.992450e+00 96 48 1
-1.985381e-01 -1.161584e-01 -1.954549e+00 147 94 47
-2.163915e-01 -1.113560e-01 -1.944988e+00 79 18 0
-1.739193e-01 -1.084243e-01 -1.950244e+00 163 105 52
-2.301893e-01 -9.657103e-02 -1.958373e+00 77 26 2
-2.819394e-01 -9.206300e-02 -1.968154e+00 151 100 52
8.407094e-03 -8.968657e-02 -1.932289e+00 67 16 6
-1.197693e-01 -9.147614e-02 -1.941667e+00 64 5 1
-4.049330e-01 -9.131707e-02 -1.991726e+00 81 36 0
-2.330277e-01 -8.922971e-02 -1.960860e+00 77 21 1
-3.000491e-01 -8.814787e-02 -1.967016e+00 145 97 48
-2.660936e-01 -8.855804e-02 -1.949675e+00 88 35 3
-3.498070e-01 -8.722864e-02 -1.980240e+00 75 28 0
-3.087461e-01 -8.673650e-02 -1.972435e+00 149 97 53
-3.088221e-01 -8.670395e-02 -1.972796e+00 149 97 53
-4.859505e-01 -8.393709e-02 -2.042274e+00 135 102 55
-3.865817e-01 -7.792379e-02 -1.990830e+00 107 60 3
-1.725225e-01 -7.450355e-02 -1.949413e+00 161 88 46
-2.158207e-01 -7.262973e-02 -1.954567e+00 71 20 0
1.846260e-02 -6.754394e-02 -1.940164e+00 68 7 0
-1.998330e-01 -6.828547e-02 -1.954489e+00 145 92 52
-3.943150e-01 -6.562753e-02 -2.002052e+00 96 49 0
-2.163533e-01 -6.267891e-02 -1.956472e+00 75 27 1
1.904534e-02 -3.052647e-02 -1.943492e+00 63 14 0
-1.170530e-01 -2.834813e-02 -1.941065e+00 120 71 30
1.397683e-02 -2.236387e-02 -1.944561e+00 132 82 40
1.398874e-02 -2.212378e-02 -1.944406e+00 132 82 40
-4.017946e-01 -1.452627e-02 -1.988965e+00 159 80 50
7.291133e-02 -6.059571e-03 -1.949384e+00 79 40 3
-4.704327e-01 5.050907e-03 -2.027996e+00 108 47 6
-8.708199e-02 8.677949e-02 -1.980110e+00 177 98 58
-1.256431e-01 1.173519e-01 -1.962092e+00 31 26 32
-1.025996e-01 1.240556e-01 -1.957718e+00 11 7 12
-5.028715e-01 1.956328e-01 -2.083678e+00 116 88 38
-1.193543e-01 3.225553e-01 -2.021121e+00 105 93 102
-2.978924e-01 3.412468e-01 -2.043293e+00 48 36 48
1.384146e-01 3.340420e-01 -1.994806e+00 126 115 96
-1.564803e-01 3.604770e-01 -2.061500e+00 94 80 83
1.295608e-01 3.413049e-01 -1.984506e+00 106 90 83
1.367262e-01 3.587432e-01 -2.004623e+00 109 92 78
1.285711e-01 3.599673e-01 -1.985697e+00 98 82 58
-4.808200e-01 4.244809e-01 -2.125223e+00 51 38 22
-7.369763e-02 4.700483e-01 -2.115817e+00 61 47 37
7.141158e-02 -1.678150e-01 -1.984039e+00 106 15 0
-3.965076e-01 -1.712918e-01 -1.974914e+00 103 47 1
2.179028e+00 8.156064e-01 -2.489051e+00 71 57 38
8.945150e-03 -6.724812e-01 -1.845181e+00 42 83 28
-6.044615e-02 -7.260256e-01 -1.853886e+00 177 154 110
-1.068212e-01 -7.102024e-01 -1.847448e+00 177 196 137
2.082103e-01 -5.719748e-01 -1.836187e+00 150 174 114
-5.818977e-02 -1.927576e-01 -1.962779e+00 133 22 7
-4.832162e-01 -8.121623e-01 -1.836725e+00 25 76 17
1.481222e-01 -5.383882e-01 -1.821287e+00 18 71 8
-2.220262e-01 -1.754477e-01 -1.954977e+00 102 55 26
-2.488628e-01 -7.527162e-01 -1.843015e+00 133 142 97
6.401495e-01 -6.215988e-01 -1.726295e+00 72 70 55
4.336506e-02 -1.151335e-01 -1.960710e+00 54 13 0
4.154677e-01 -8.930588e-01 -1.754132e+00 23 19 4
-2.355025e-01 -4.025140e-01 -1.955457e+00 130 72 22
-2.353950e-01 -4.023161e-01 -1.955020e+00 130 72 22
-4.609589e-02 -3.777710e-01 -1.939129e+00 59 16 11
-2.378996e-01 -3.441563e-01 -1.959140e+00 141 81 27
-2.378996e-01 -3.441563e-01 -1.959140e+00 141 81 27
4.566923e-02 -3.331372e-01 -1.943250e+00 60 1 0
-2.486847e-01 -3.239538e-01 -1.958718e+00 141 83 26
-2.542074e-01 -3.119146e-01 -1.958544e+00 94 49 15
7.309156e-03 -2.811060e-01 -1.954674e+00 58 3 1
8.233587e-02 -2.506056e-01 -1.952229e+00 52 1 3
8.162631e-02 -2.510445e-01 -1.951297e+00 52 1 3
-3.990425e-01 -2.283683e-01 -1.991197e+00 89 36 4
-3.502155e-01 -2.240620e-01 -1.986309e+00 81 31 2
-3.888197e-01 -2.139466e-01 -1.997378e+00 90 42 6
-4.042455e-01 -2.073093e-01 -1.994064e+00 100 48 7
-4.193701e-01 -1.624551e-01 -2.007651e+00 114 63 9
-4.198850e-01 -1.609663e-01 -2.006588e+00 114 63 9
-1.200753e-01 -1.371051e-01 -1.940050e+00 104 44 8
6.776659e-02 -1.247223e-01 -1.964011e+00 96 47 34
-4.136901e-01 -1.129169e-01 -1.999647e+00 142 95 25
-2.236538e-01 -1.021280e-01 -1.948629e+00 138 87 21
-2.236538e-01 -1.021280e-01 -1.948629e+00 138 87 21
-9.244997e-02 -9.872112e-02 -1.940923e+00 132 73 16
-2.107372e-01 -5.964648e-02 -1.928736e+00 145 95 27
-2.115468e-01 -5.707549e-02 -1.937504e+00 145 95 27
-2.189981e-01 -6.066129e-02 -1.929303e+00 152 100 40
-3.101909e-01 -3.278703e-02 -1.966611e+00 165 94 61
-3.061921e-01 -3.437028e-02 -1.946594e+00 165 94 61
-4.333671e-01 -2.791115e-02 -2.002097e+00 93 47 0
3.563990e-01 -8.162785e-01 -1.793455e+00 30 23 5
-3.558662e-01 -4.923283e-01 -1.986173e+00 90 32 3
-3.558662e-01 -4.923283e-01 -1.986173e+00 90 32 3
-3.769131e-01 -4.854702e-01 -2.009585e+00 132 76 18
-3.717438e-01 -4.785528e-01 -1.990881e+00 132 76 18
-2.554980e-01 -4.587398e-01 -1.944647e+00 88 23 0
8.147165e-01 -4.520932e-01 -1.881293e+00 195 181 138
-3.645723e-01 -4.682568e-01 -1.984663e+00 84 29 1
-3.645723e-01 -4.682568e-01 -1.984663e+00 84 29 1
4.313994e-02 -4.601974e-01 -1.959672e+00 68 0 2
-2.408772e-01 -4.317756e-01 -1.963910e+00 69 13 1
-4.169629e-01 -4.149616e-01 -2.011402e+00 98 46 1
-4.141190e-01 -3.912937e-01 -2.014110e+00 145 88 31
-4.134724e-01 -3.902804e-01 -2.011750e+00 145 88 31
3.218785e-02 -3.727098e-01 -1.940176e+00 58 4 9
3.118805e-02 -3.696266e-01 -1.930106e+00 58 4 9
4.348712e-02 -3.717662e-01 -1.946915e+00 54 0 4
4.348712e-02 -3.717662e-01 -1.946915e+00 54 0 4
-1.519022e-01 -3.506317e-01 -1.947535e+00 124 24 1
-1.519022e-01 -3.506317e-01 -1.947535e+00 124 24 1
-4.350485e-01 -3.390332e-01 -2.042835e+00 112 55 2
-3.585767e-01 -2.118792e-01 -1.988588e+00 145 96 37
-4.005942e-01 -6.846852e-02 -1.994716e+00 88 46 4
-4.005942e-01 -6.846852e-02 -1.994716e+00 88 46 4
-1.930310e-01 -6.675331e-02 -1.956882e+00 61 9 4
-4.347690e-01 -5.361017e-02 -2.008170e+00 104 63 11
-8.085974e-02 -5.699938e-03 -1.951885e+00 153 112 51
1.398901e-01 3.233685e-01 -1.985797e+00 31 14 10
4.405184e-01 -8.402453e-01 -1.733986e+00 45 45 37
4.691949e-01 -7.525689e-01 -1.724720e+00 83 80 73
4.470792e-01 -7.466281e-01 -1.727858e+00 32 25 6
-2.738780e-01 -8.141206e-01 -1.867356e+00 48 56 9
4.687688e-01 -6.717555e-01 -1.741256e+00 60 59 47
4.687688e-01 -6.717555e-01 -1.741256e+00 60 59 47
1.489616e-01 -6.246004e-01 -1.846779e+00 37 53 8
5.363011e-02 -6.181448e-01 -1.846753e+00 22 34 0
2.406663e-01 -5.334618e-01 -1.834896e+00 31 39 0
-1.646264e-01 -5.517823e-01 -1.948263e+00 153 75 36
3.023435e-01 -5.059317e-01 -1.830691e+00 26 40 2
-1.801212e-01 -5.278147e-01 -1.959069e+00 101 33 0
-3.829598e-02 -5.143802e-01 -1.949746e+00 120 37 22
-2.468102e-01 -4.729040e-01 -1.969657e+00 70 7 3
-2.581682e-01 -4.635351e-01 -1.958829e+00 88 22 0
-2.582473e-01 -4.636263e-01 -1.959624e+00 88 22 0
-2.104119e-01 -4.130756e-01 -1.956384e+00 134 77 33
-1.961662e-01 -3.949959e-01 -1.948015e+00 73 9 1
-1.845552e-01 -3.898628e-01 -1.952850e+00 97 31 1
-2.665633e-01 -3.855346e-01 -1.960311e+00 86 20 1
-1.958151e-01 -3.447109e-01 -1.952652e+00 137 79 23
-2.267147e-02 -3.279489e-01 -1.944056e+00 71 8 8
-2.017692e-01 -3.223860e-01 -1.942865e+00 135 74 19
-5.035192e-02 -3.185866e-01 -1.948254e+00 61 0 0
-3.502847e-01 -2.768179e-01 -1.982823e+00 148 91 43
-2.019792e-01 -2.537844e-01 -1.950521e+00 74 18 7
-2.023593e-01 -2.186172e-01 -1.953175e+00 64 13 6
-2.704226e-01 -2.181154e-01 -1.962939e+00 80 38 5
5.053618e-02 -1.853186e-01 -1.996426e+00 144 56 36
4.144670e-02 -1.805382e-01 -1.949182e+00 144 56 36
-3.262590e-02 -1.736711e-01 -1.943799e+00 151 106 68
-5.572259e-02 -1.555275e-01 -1.943056e+00 72 3 0
-1.732068e-01 -1.392123e-01 -1.944739e+00 170 119 73
-1.740722e-01 -1.206220e-01 -1.948267e+00 170 112 75
-1.740572e-01 -1.208414e-01 -1.948754e+00 170 112 75
-9.491532e-02 -1.155363e-01 -1.942767e+00 59 3 0
-2.250733e-01 -9.457468e-02 -1.958485e+00 144 98 49
1.246162e-01 -5.634508e-02 -1.958542e+00 126 59 24
1.246162e-01 -5.634508e-02 -1.958542e+00 126 59 24
-3.367416e-01 -4.447664e-02 -1.972760e+00 152 101 46
-1.221557e-01 -2.806864e-02 -1.932996e+00 61 6 0
-4.964732e-01 2.683147e-02 -2.056577e+00 126 92 47
-1.034546e-01 2.485265e-01 -1.956095e+00 41 41 51
-1.973543e-01 3.281537e-01 -2.029909e+00 48 37 49
-3.107279e-01 4.650248e-01 -2.126750e+00 35 28 16
2.367784e+00 9.215665e-01 -2.669422e+00 94 84 56
4.455893e-01 -9.254773e-01 -1.744625e+00 35 29 8
-4.477636e-01 -8.808289e-01 -1.867922e+00 39 77 22
-4.669144e-01 -8.232328e-01 -1.846808e+00 50 109 42
-4.914253e-01 -8.413716e-01 -1.883483e+00 26 55 17
-3.845880e-01 -8.315380e-01 -1.867332e+00 48 100 55
-3.103020e-01 -8.263105e-01 -1.864160e+00 48 63 3
4.631591e-01 -7.359418e-01 -1.729928e+00 76 71 53
-4.022982e-01 -8.112454e-01 -1.870351e+00 85 105 34
-4.373902e-01 -8.153990e-01 -1.882105e+00 73 95 63
3.257251e-01 -7.875296e-01 -1.812008e+00 89 80 56
-3.156258e-01 -7.831770e-01 -1.840724e+00 44 95 48
-3.407462e-01 -7.925366e-01 -1.868726e+00 61 95 50
4.924682e-01 -6.802289e-01 -1.732226e+00 58 58 50
4.710194e-01 -6.711832e-01 -1.734706e+00 51 47 36
-2.278734e-01 -7.204572e-01 -1.869838e+00 57 78 33
5.696352e-02 -6.730591e-01 -1.854363e+00 166 154 94
2.656856e-01 -6.555143e-01 -1.861427e+00 23 17 6
1.031897e-01 -6.357728e-01 -1.842847e+00 143 153 112
2.361496e-01 -6.649712e-01 -1.896452e+00 95 83 57
1.021670e-01 -5.847455e-01 -1.848386e+00 185 209 135
1.480235e-01 -5.761189e-01 -1.838422e+00 127 200 122
1.750077e-01 -5.661551e-01 -1.842132e+00 188 209 161
2.717760e-01 -5.406634e-01 -1.831204e+00 150 173 116
2.447272e-01 -5.234102e-01 -1.834065e+00 34 92 13
3.647544e-01 -5.182398e-01 -1.823780e+00 47 55 40
2.818445e-01 -5.162331e-01 -1.826541e+00 14 75 10
3.815277e-01 -4.974375e-01 -1.823310e+00 129 142 103
-2.182443e-01 -5.351034e-01 -1.966851e+00 150 82 45
-1.999379e-01 -5.239283e-01 -1.951477e+00 83 19 6
3.293867e-01 -4.664136e-01 -1.842133e+00 26 27 0
1.392984e-01 -5.253098e-01 -2.001693e+00 154 132 90
-4.075910e-01 -5.150117e-01 -1.997951e+00 158 86 38
-2.235245e-01 -4.940522e-01 -1.952357e+00 76 8 0
-1.999045e-01 -4.894784e-01 -1.946690e+00 77 12 7
-3.593839e-01 -5.022171e-01 -1.982745e+00 94 41 1
-3.906699e-01 -5.005777e-01 -1.992206e+00 89 29 0
3.671867e-01 -4.447996e-01 -1.829634e+00 28 22 2
-2.588721e-01 -4.868527e-01 -1.966046e+00 88 24 6
-2.211715e-01 -4.803220e-01 -1.953198e+00 136 72 24
1.335806e-01 -4.940871e-01 -1.988191e+00 80 53 43
-2.474724e-01 -4.782806e-01 -1.959824e+00 134 74 26
-2.579061e-01 -4.717157e-01 -1.960132e+00 85 20 0
-1.929548e-01 -4.681083e-01 -1.952998e+00 84 22 4
-4.638668e-02 -4.597383e-01 -1.941834e+00 66 3 2
-2.362664e-01 -4.562892e-01 -1.959121e+00 70 9 0
2.843733e-02 -4.565667e-01 -1.961962e+00 115 35 24
-1.942030e-01 -4.455155e-01 -1.944710e+00 82 19 2
-3.850683e-01 -4.542828e-01 -1.994420e+00 143 81 33
-4.930794e-01 -4.761669e-01 -2.073805e+00 156 124 82
-2.042967e-01 -4.362751e-01 -1.951820e+00 73 9 0
-2.041457e-01 -4.273515e-01 -1.951494e+00 77 17 0
-2.153946e-01 -3.888874e-01 -1.955666e+00 95 31 1
-8.126801e-02 -3.799039e-01 -1.936058e+00 131 51 35
-8.126801e-02 -3.799039e-01 -1.936058e+00 131 51 35
-3.735317e-01 -3.835698e-01 -1.987093e+00 142 84 31
-2.661482e-01 -3.735958e-01 -1.958197e+00 83 19 0
-2.160027e-01 -3.698282e-01 -1.955306e+00 89 25 1
-3.990303e-01 -3.714369e-01 -1.991777e+00 141 84 28
-1.149983e-01 -3.613872e-01 -1.949339e+00 150 59 38
-1.150696e-01 -3.616127e-01 -1.950040e+00 150 59 38
-1.635608e-01 -3.568233e-01 -1.947153e+00 110 33 2
-2.590317e-02 -3.505620e-01 -1.941950e+00 61 2 2
-2.060746e-01 -3.497043e-01 -1.949681e+00 82 23 8
5.169500e-03 -3.475299e-01 -1.944371e+00 119 43 35
3.686550e-02 -3.385065e-01 -1.946737e+00 111 43 31
5.663116e-02 -3.274830e-01 -1.931052e+00 69 0 1
-2.547187e-01 -3.265404e-01 -1.954816e+00 92 34 7
-7.545138e-02 -3.121058e-01 -1.942553e+00 63 6 5
-7.546761e-02 -3.119091e-01 -1.942016e+00 63 6 5
-1.356910e-01 -3.089605e-01 -1.924315e+00 116 41 13
-3.049165e-02 -3.075908e-01 -1.940889e+00 131 49 41
-2.691397e-01 -3.056087e-01 -1.959414e+00 99 38 6
-3.150605e-02 -2.835015e-01 -1.936388e+00 73 3 0
-3.496798e-01 -2.756392e-01 -1.980056e+00 147 90 43
-3.532155e-01 -2.715484e-01 -1.980328e+00 96 35 0
9.073210e-03 -2.526116e-01 -1.942696e+00 138 53 33
-4.713215e-02 -2.471632e-01 -1.938923e+00 109 25 5
-4.713215e-02 -2.471632e-01 -1.938923e+00 109 25 5
-2.159174e-01 -2.471766e-01 -1.956189e+00 136 79 18
3.593836e-01 -2.393900e-01 -1.952865e+00 201 186 162
-4.647215e-01 -2.427484e-01 -2.028526e+00 146 91 50
-4.317841e-02 -1.974419e-01 -1.940774e+00 160 69 49
-4.607839e-01 -2.043399e-01 -2.028688e+00 112 47 10
-3.122046e-01 -1.980146e-01 -1.970773e+00 139 80 24
-3.545476e-01 -1.981680e-01 -1.982593e+00 92 46 12
4.919018e-02 -1.883210e-01 -1.948911e+00 107 16 0
-3.885573e-01 -1.845507e-01 -1.988226e+00 142 96 43
5.009480e-02 -1.796580e-01 -1.943424e+00 142 54 34
-2.047001e-01 -1.717572e-01 -1.952692e+00 73 16 1
-2.047001e-01 -1.717572e-01 -1.952692e+00 73 16 1
-3.503863e-01 -1.694545e-01 -1.982433e+00 74 27 1
-9.108703e-02 -1.617936e-01 -1.945424e+00 141 90 42
-4.373709e-01 -1.560877e-01 -2.004255e+00 167 107 49
-3.545472e-01 -1.481779e-01 -1.980313e+00 131 81 23
8.968138e-02 -1.324031e-01 -1.953761e+00 149 89 51
-2.053991e-01 -1.319157e-01 -1.960033e+00 94 37 10
-2.139235e-01 -1.156991e-01 -1.959803e+00 141 88 37
-2.726731e-01 -1.000246e-01 -1.953810e+00 138 83 26
-2.723394e-01 -1.003577e-01 -1.954402e+00 138 83 26
-4.415482e-01 -9.185756e-02 -2.007161e+00 164 105 47
-7.591271e-02 -8.207449e-02 -1.936825e+00 79 29 10
-3.946038e-01 -7.772387e-02 -1.999415e+00 138 91 26
-3.357637e-01 -7.673875e-02 -1.955756e+00 141 90 30
-1.187500e-01 -7.341282e-02 -1.942627e+00 85 26 10
-2.567717e-03 -6.951591e-02 -1.945289e+00 77 22 12
-2.567717e-03 -6.951591e-02 -1.945289e+00 77 22 12
-1.036172e-01 -4.119528e-02 -1.939124e+00 53 11 7
1.076302e-01 -3.549922e-02 -1.952123e+00 138 81 37
-2.833604e-01 -3.147919e-02 -1.941833e+00 116 32 4
-4.442876e-01 -2.628404e-02 -2.011479e+00 150 94 46
-7.236764e-02 -2.411139e-02 -1.939009e+00 126 78 27
-7.037273e-02 1.055051e-03 -1.945446e+00 117 30 3
3.606390e-02 1.665715e-02 -1.948047e+00 155 101 38
-2.629244e-01 7.005281e-02 -1.968146e+00 192 96 57
1.423093e-01 1.848706e-01 -1.981815e+00 151 107 60
-8.231136e-02 3.213985e-01 -2.015004e+00 43 34 44
-1.277188e-01 3.222256e-01 -2.018345e+00 52 38 47
-2.339456e-01 3.338506e-01 -2.039763e+00 50 38 50
-2.419420e-03 3.276851e-01 -1.997860e+00 52 39 43
6.899626e-03 3.333659e-01 -2.000308e+00 55 42 50
6.899626e-03 3.333659e-01 -2.000308e+00 55 42 50
-1.872915e-01 3.469137e-01 -2.027713e+00 99 84 87
-1.846119e-01 3.599168e-01 -2.056125e+00 92 80 84
-3.682904e-01 3.674119e-01 -2.073024e+00 79 68 86
-4.357916e-01 4.275156e-01 -2.125326e+00 29 22 35
-6.586043e-02 4.587386e-01 -2.094727e+00 42 27 19
2.510692e+00 1.349527e+00 -2.870208e+00 12 11 6
2.353157e-01 -5.091010e-01 -1.797462e+00 144 175 105
2.361969e-01 -5.106125e-01 -1.799991e+00 144 175 105
-1.850397e-01 -7.756588e-01 -1.848341e+00 170 153 108
1.048958e-02 -6.829161e-01 -1.860659e+00 44 85 28
-6.029739e-02 -7.225935e-01 -1.848773e+00 177 156 110
-2.480843e-01 -7.383619e-01 -1.875992e+00 25 89 36
-3.446463e-01 -8.325504e-02 -1.975618e+00 102 58 23
-3.448179e-01 -8.338249e-02 -1.976127e+00 102 58 23
-3.770500e-01 -8.113606e-01 -1.854195e+00 173 185 134
9.417238e-02 -6.411460e-01 -1.858937e+00 165 176 123
-1.043756e-01 -1.005955e-01 -1.948778e+00 132 75 8
-1.043756e-01 -1.005955e-01 -1.948778e+00 132 75 8
1.499573e-01 -5.103065e-02 -2.004875e+00 129 83 42
9.559225e-01 -6.143562e-01 -1.732357e+00 179 165 122
2.518503e-03 -3.678402e-01 -1.949766e+00 62 6 2
-3.518810e-01 -2.146298e-01 -1.990963e+00 142 94 19
-2.608939e-02 -1.539240e-01 -1.968031e+00 83 39 27
-2.726173e-02 -8.072007e-02 -1.934362e+00 93 51 28
-2.726173e-02 -8.072007e-02 -1.934362e+00 93 51 28
-3.654805e-01 2.512868e-01 -1.878453e+00 95 85 77
2.903957e-01 -5.513169e-01 -1.834564e+00 96 111 79
2.468675e-01 -5.167649e-01 -1.842146e+00 13 79 9
-2.522135e-01 -4.826862e-01 -1.966294e+00 141 77 27
6.897577e-02 -3.675613e-01 -1.970162e+00 61 0 0
6.213349e-02 -3.292664e-01 -1.952193e+00 57 2 0
5.917854e-01 -2.743605e-01 -1.945692e+00 196 183 143
-4.149545e-01 -2.002600e-01 -2.030702e+00 142 99 30
-4.049901e-01 3.141001e-01 -2.031347e+00 108 94 87
6.905245e-01 -9.354902e-01 -1.736927e+00 28 22 6
-4.431222e-01 -8.161933e-01 -1.887613e+00 195 183 156
-3.276180e-01 -7.835410e-01 -1.868850e+00 170 198 121
4.767129e-01 -6.672276e-01 -1.724071e+00 59 57 46
4.767129e-01 -6.672276e-01 -1.724071e+00 59 57 46
-2.010191e-01 -7.317993e-01 -1.861376e+00 32 47 12
-2.318868e-01 -7.249361e-01 -1.866316e+00 24 66 21
-1.717775e-02 -6.996274e-01 -1.855423e+00 46 49 2
-1.679494e-01 -6.911825e-01 -1.869438e+00 187 178 142
1.806295e-01 -5.642259e-01 -1.843421e+00 16 30 0
1.804195e-01 -5.414456e-01 -1.839502e+00 5 65 2
3.347859e-01 -4.754206e-01 -1.841381e+00 15 55 5
1.944349e-03 -5.146302e-01 -1.954898e+00 77 1 1
-1.981439e-01 -4.809923e-01 -1.954012e+00 131 66 24
-1.980635e-01 -4.806523e-01 -1.952673e+00 131 66 24
-2.081992e-01 -4.726614e-01 -1.959390e+00 141 80 32
1.377870e-01 -3.801465e-01 -1.984415e+00 23 2 0
-2.685601e-01 -3.668557e-01 -1.963781e+00 85 15 0
1.473204e-01 -3.567805e-01 -1.980353e+00 202 187 158
1.638007e-02 -3.061908e-01 -1.946451e+00 117 40 26
6.824943e-02 -2.846533e-01 -2.014307e+00 116 37 27
1.416191e-01 -2.643113e-01 -1.969907e+00 130 113 70
-3.982301e-01 -2.665071e-01 -1.994122e+00 75 31 2
-9.531177e-04 -2.117690e-01 -1.951857e+00 105 15 0
-8.277272e-02 -1.825407e-01 -1.950966e+00 161 110 71
-1.147696e-01 -7.936012e-02 -1.945449e+00 134 77 17
-4.646389e-01 -6.827573e-02 -2.014764e+00 114 52 13
-6.363098e-02 -6.658710e-02 -1.940800e+00 132 78 17
-3.180435e-01 -4.812036e-02 -1.958222e+00 156 105 48
-4.664151e-01 -2.875662e-02 -2.008909e+00 113 54 14
1.608313e-02 -2.500779e-02 -1.955610e+00 133 86 39
-7.785276e-02 -2.237316e-02 -1.941884e+00 54 2 0
-1.555686e-01 3.218510e-01 -2.016478e+00 47 35 46
-4.836524e-01 3.385098e-01 -2.040273e+00 57 41 35
-4.317382e-01 -8.261913e-01 -1.836014e+00 171 200 162
-3.774220e-01 -8.623023e-01 -1.876129e+00 41 64 9
-4.437120e-01 -8.419957e-01 -1.871832e+00 30 65 1
4.317165e-01 -7.428856e-01 -1.715794e+00 32 29 14
4.352161e-01 -7.290795e-01 -1.702718e+00 54 48 34
4.698675e-01 -7.323295e-01 -1.720343e+00 65 62 52
3.309611e-01 -7.964880e-01 -1.816972e+00 88 78 51
-3.304635e-01 -7.989543e-01 -1.872954e+00 171 193 147
-2.484161e-01 -7.780996e-01 -1.865389e+00 30 66 23
3.944574e-01 -7.007713e-01 -1.757222e+00 37 37 29
-2.470421e-01 -7.258365e-01 -1.872753e+00 188 181 150
9.549371e-01 -6.578036e-01 -1.726278e+00 51 49 30
9.459985e-01 -6.129907e-01 -1.722249e+00 181 168 126
-1.223012e-02 -6.573485e-01 -1.852031e+00 51 109 50
2.635402e-01 -6.525024e-01 -1.856506e+00 23 16 6
