ply
format ascii 1.0
element face 0
property list uchar int vertex_indices
element vertex 943
property float x
property float y
property float z
property uchar diffuse_red
property uchar diffuse_green
property uchar diffuse_blue
end_header
-8.619372e-01 -6.914672e-01 -2.512433e+00 160 100 40
-8.692382e-01 -6.388651e-01 -2.502732e+00 164 105 39
1.709121e+00 -5.140471e-01 -2.106805e+00 91 89 77
-4.106654e-01 -5.678009e-01 -2.348305e+00 103 42 6
1.269878e-02 -5.458509e-01 -2.297408e+00 141 42 22
-7.647815e-01 -5.944494e-01 -2.469978e+00 108 48 1
-4.598882e-02 -5.377855e-01 -2.301313e+00 154 62 44
-4.503026e-02 -5.464198e-01 -2.326541e+00 154 62 44
-5.849292e-02 -5.371348e-01 -2.325840e+00 98 12 4
-1.968362e-01 -5.513661e-01 -2.369661e+00 180 82 47
-3.606750e-01 -5.388697e-01 -2.356298e+00 96 29 1
1.282715e-01 -5.181770e-01 -2.311762e+00 129 36 19
1.313026e-01 -5.286152e-01 -2.344268e+00 129 36 19
-8.856357e-01 -5.707070e-01 -2.488733e+00 160 107 36
-8.984916e-01 -5.838875e-01 -2.533460e+00 160 107 36
4.512594e-02 -5.094838e-01 -2.303080e+00 87 11 4
-8.490201e-02 -5.064948e-01 -2.329545e+00 91 0 0
-8.325921e-02 -5.169316e-01 -2.364488e+00 91 0 0
-3.534875e-01 -5.256842e-01 -2.397611e+00 159 96 34
7.499579e-02 -5.037613e-01 -2.355305e+00 136 43 28
3.089031e-03 -5.162455e-01 -2.409810e+00 141 54 34
4.383501e-02 -4.885290e-01 -2.334374e+00 82 2 1
2.280446e-01 -4.906656e-01 -2.361398e+00 80 1 0
1.748204e-01 -4.853227e-01 -2.349340e+00 95 6 2
3.156475e-01 -4.574059e-01 -2.298054e+00 95 2 2
-2.086541e-01 -4.617330e-01 -2.317374e+00 140 53 17
-8.998728e-01 -5.153654e-01 -2.520142e+00 124 62 3
-8.998728e-01 -5.153654e-01 -2.520142e+00 124 62 3
2.251701e-01 -4.676304e-01 -2.350389e+00 79 1 0
3.094105e-01 -4.841631e-01 -2.425929e+00 131 37 24
-2.598688e-01 -4.653188e-01 -2.371458e+00 126 48 5
1.719959e-01 -4.553160e-01 -2.352212e+00 135 46 28
-3.383282e-01 -4.552930e-01 -2.358250e+00 158 99 25
6.847037e-01 -4.827222e-01 -2.435054e+00 51 44 36
1.934837e+00 -4.393006e-01 -2.266530e+00 60 54 41
1.590825e-01 -4.401364e-01 -2.330034e+00 104 3 4
-9.156221e-01 -4.929141e-01 -2.534647e+00 116 56 1
2.382409e-01 -4.305222e-01 -2.329571e+00 95 9 5
-4.894487e-01 -4.386062e-01 -2.384896e+00 99 35 1
-1.439445e-01 -4.361780e-01 -2.379518e+00 126 34 1
-3.516406e-01 -4.211503e-01 -2.335513e+00 150 92 48
-9.889325e-01 -4.888017e-01 -2.575022e+00 133 56 13
1.833446e+00 -3.936557e-01 -2.201574e+00 57 53 42
-4.768877e-01 -4.315268e-01 -2.379659e+00 161 105 46
-3.801967e-01 -4.269655e-01 -2.382011e+00 159 101 32
-4.848936e-01 -4.092084e-01 -2.355506e+00 107 45 8
2.780762e-01 -3.945693e-01 -2.322365e+00 89 3 0
-1.520307e-01 -3.964610e-01 -2.373194e+00 135 45 11
-4.907690e-01 -4.005184e-01 -2.387747e+00 152 95 28
-4.546611e-01 -3.945720e-01 -2.378942e+00 85 28 0
-9.055279e-01 -4.320555e-01 -2.526017e+00 167 104 32
-1.013458e+00 -4.520209e-01 -2.601424e+00 163 99 55
-3.835713e-02 -3.788007e-01 -2.325261e+00 74 1 1
5.197467e-01 -4.102095e-01 -2.443538e+00 151 129 87
-4.783017e-01 -3.889755e-01 -2.377994e+00 99 45 3
9.968874e-02 -3.754575e-01 -2.326794e+00 83 0 0
-5.228966e-01 -3.844388e-01 -2.378230e+00 99 42 1
-7.868395e-02 -3.630849e-01 -2.316260e+00 144 41 25
-1.727739e-01 -3.529351e-01 -2.322599e+00 132 48 12
-1.060889e-01 -3.778580e-01 -2.410091e+00 181 87 53
-1.045737e-01 -3.806202e-01 -2.421158e+00 181 87 53
7.494768e-02 -3.455838e-01 -2.312612e+00 150 55 45
7.612324e-02 -3.489216e-01 -2.322641e+00 150 55 45
-6.287053e-02 -3.491510e-01 -2.346359e+00 136 40 24
6.447860e-02 -3.397825e-01 -2.314798e+00 101 6 6
-9.078272e-01 -3.765706e-01 -2.479301e+00 128 69 1
-3.812113e-02 -3.311546e-01 -2.322869e+00 79 3 2
-4.192209e-04 -3.206477e-01 -2.313477e+00 71 0 0
2.039255e-01 -3.271143e-01 -2.350691e+00 72 0 0
-1.846841e-01 -3.243609e-01 -2.348625e+00 179 82 46
2.412863e-01 -3.170808e-01 -2.333629e+00 84 0 0
1.441750e-01 -3.180255e-01 -2.335797e+00 89 1 0
-5.440800e-01 -3.350009e-01 -2.406970e+00 83 22 1
-5.316497e-01 -3.186419e-01 -2.383373e+00 165 105 41
2.241581e-01 -3.025359e-01 -2.343894e+00 78 1 1
1.810636e+00 -2.879024e-01 -2.327307e+00 216 203 152
-6.309993e-01 -3.077409e-01 -2.416253e+00 95 41 8
1.587855e-01 -2.863837e-01 -2.329152e+00 87 0 0
-7.115132e-01 -3.083306e-01 -2.440854e+00 82 22 0
1.180358e+00 -3.076908e-01 -2.440969e+00 29 26 14
-2.666254e-01 -2.686643e-01 -2.364900e+00 131 45 7
-2.874575e-02 -2.616813e-01 -2.333275e+00 183 83 53
2.091809e-01 -2.648195e-01 -2.376878e+00 86 3 1
-1.002893e+00 -3.073662e-01 -2.581047e+00 133 60 15
1.230179e+00 -2.544355e-01 -2.356933e+00 66 65 47
1.831847e+00 -2.585875e-01 -2.404123e+00 216 199 156
5.185714e-01 -2.628522e-01 -2.443726e+00 146 120 75
7.009015e-02 -2.359207e-01 -2.338876e+00 167 64 36
-4.126130e-01 -2.520837e-01 -2.412778e+00 155 102 25
-1.034446e+00 -2.785131e-01 -2.597639e+00 141 84 38
-8.422919e-01 -2.562059e-01 -2.482065e+00 158 105 37
-1.028816e+00 -2.841700e-01 -2.620436e+00 167 97 54
-3.581467e-01 -2.254519e-01 -2.354373e+00 87 29 10
-3.624723e-01 -1.973489e-01 -2.312118e+00 149 90 10
2.290265e-01 -1.913845e-01 -2.344075e+00 158 66 39
-2.674882e-01 -2.746403e-01 -2.805097e+00 201 113 77
-1.003625e+00 -2.137423e-01 -2.560432e+00 135 62 19
2.899513e-01 -1.614398e-01 -2.365694e+00 156 61 36
2.899280e-01 -1.608995e-01 -2.360515e+00 156 61 36
-5.418630e-01 -1.546556e-01 -2.402383e+00 152 98 22
2.200532e-01 -1.369729e-01 -2.329401e+00 154 64 37
-3.968039e-01 -1.424750e-01 -2.383609e+00 100 42 3
-3.968039e-01 -1.424750e-01 -2.383609e+00 100 42 3
-3.483478e-01 -1.337701e-01 -2.368272e+00 178 131 60
1.999600e-02 -1.147800e-01 -2.292638e+00 171 82 48
-8.346382e-01 -1.497175e-01 -2.484177e+00 104 53 0
3.647857e-01 -1.163921e-01 -2.341270e+00 152 58 33
4.977180e-02 -1.130582e-01 -2.312948e+00 167 70 38
-3.975147e-01 -1.249485e-01 -2.369278e+00 96 37 4
-3.975870e-01 -1.250108e-01 -2.368978e+00 96 37 4
-8.882730e-01 -1.496724e-01 -2.578020e+00 111 60 5
-9.393714e-01 -1.408014e-01 -2.532668e+00 137 85 10
-6.803913e-01 -1.195362e-01 -2.435269e+00 167 123 55
-6.802574e-01 -1.194793e-01 -2.434262e+00 167 123 55
-7.090691e-01 -1.042439e-01 -2.470958e+00 163 110 33
2.014913e-01 -7.089607e-02 -2.315974e+00 159 65 39
6.319394e-02 -7.143084e-02 -2.328744e+00 180 85 55
4.871534e-02 -7.264252e-02 -2.314780e+00 123 23 4
2.116080e-01 -6.197955e-02 -2.326561e+00 119 23 1
-3.958430e-01 -7.390667e-02 -2.368874e+00 105 46 6
-3.961934e-01 -7.474861e-02 -2.375370e+00 105 46 6
1.239399e+00 -4.276705e-02 -2.293702e+00 215 198 163
-7.676198e-01 -7.754550e-02 -2.474844e+00 156 100 22
-8.379286e-01 -7.007442e-02 -2.488089e+00 163 114 43
-9.370124e-01 -7.494499e-02 -2.531456e+00 155 113 40
1.602885e-01 -3.529959e-02 -2.308074e+00 120 21 0
-1.463778e-01 -3.973473e-02 -2.321755e+00 180 108 51
-8.143707e-01 -6.396075e-02 -2.476431e+00 153 101 23
2.321401e-01 -3.561895e-02 -2.324610e+00 163 62 36
-7.320932e-01 -5.385999e-02 -2.481407e+00 128 71 4
-4.012366e-01 -3.603544e-02 -2.380825e+00 77 28 2
-4.044929e-01 -4.068789e-02 -2.410522e+00 77 28 2
-6.468200e-01 -3.680419e-02 -2.401874e+00 153 103 25
-6.257614e-01 -3.456740e-02 -2.437551e+00 107 55 3
-9.365593e-01 -4.334223e-02 -2.555893e+00 162 115 43
-6.224609e-01 -1.789140e-02 -2.399108e+00 106 56 4
-7.368112e-01 -2.547024e-02 -2.455717e+00 89 45 0
-1.053501e+00 -4.399936e-02 -2.592627e+00 139 94 45
-7.507483e-01 -2.008432e-02 -2.455255e+00 156 114 42
-1.021378e+00 -3.411543e-02 -2.585631e+00 129 55 11
-5.204977e-02 4.774599e-03 -2.345661e+00 91 27 0
-9.199149e-01 -3.101951e-03 -2.528237e+00 129 73 1
-9.239655e-01 -4.384758e-03 -2.541766e+00 129 73 1
5.016764e-02 2.853765e-02 -2.315336e+00 72 12 0
5.126078e-02 2.640799e-02 -2.330405e+00 72 12 0
-5.976237e-01 1.389325e-02 -2.422172e+00 121 56 2
1.804051e-02 3.455469e-02 -2.335508e+00 152 91 26
7.353757e-02 3.553073e-02 -2.319938e+00 70 15 1
-6.941029e-01 2.608470e-02 -2.444476e+00 119 59 1
-6.939072e-01 2.632793e-02 -2.442308e+00 119 59 1
-8.333553e-01 2.181518e-02 -2.490206e+00 113 68 5
-8.359475e-01 3.256965e-02 -2.459344e+00 162 114 46
1.372639e-01 5.843413e-02 -2.327188e+00 152 97 49
1.372639e-01 5.843413e-02 -2.327188e+00 152 97 49
-7.465455e-02 5.897473e-02 -2.333448e+00 84 24 5
-3.346772e-01 5.508195e-02 -2.381302e+00 95 35 2
1.265848e-01 6.861428e-02 -2.330467e+00 84 22 10
-1.049763e+00 3.806180e-02 -2.606151e+00 145 77 31
-7.537160e-02 7.203824e-02 -2.330437e+00 77 14 3
-7.582730e-02 7.220838e-02 -2.320810e+00 77 14 3
-3.714646e-01 6.330826e-02 -2.382949e+00 115 60 1
-7.849625e-01 5.358223e-02 -2.478259e+00 161 107 35
-7.675451e-01 5.550568e-02 -2.460688e+00 126 69 5
-7.687971e-01 5.526466e-02 -2.468917e+00 126 69 5
-1.506369e-02 7.966866e-02 -2.335195e+00 163 96 31
1.218965e-01 8.765674e-02 -2.301219e+00 141 81 22
-9.684256e-01 5.722188e-02 -2.591148e+00 123 74 9
-3.725339e-01 8.076965e-02 -2.364328e+00 110 50 2
-5.153495e-01 8.105659e-02 -2.377426e+00 129 70 4
-5.153495e-01 8.105659e-02 -2.377426e+00 129 70 4
-4.017496e-01 8.298930e-02 -2.371000e+00 112 50 4
-5.678403e-01 7.578252e-02 -2.418421e+00 115 64 0
-8.902564e-01 6.910012e-02 -2.520371e+00 125 73 1
-7.456838e-01 7.903739e-02 -2.445767e+00 114 62 2
-7.512039e-01 7.777052e-02 -2.466851e+00 114 62 2
-6.808782e-01 8.530600e-02 -2.449421e+00 119 69 3
4.728015e-02 1.037948e-01 -2.349066e+00 145 84 18
-7.086147e-01 9.110928e-02 -2.445586e+00 165 119 44
-7.047932e-01 9.239365e-02 -2.424873e+00 165 119 44
-8.339879e-01 8.889074e-02 -2.504384e+00 155 109 31
4.016375e-01 1.100716e-01 -2.417819e+00 180 113 65
4.065076e-01 1.105482e-01 -2.436231e+00 180 113 65
-7.236773e-01 9.404468e-02 -2.456977e+00 120 74 3
-4.126700e-01 1.101169e-01 -2.401778e+00 84 18 0
-9.323074e-01 1.005601e-01 -2.548735e+00 124 72 2
-3.956955e-01 1.219420e-01 -2.386227e+00 160 102 41
-3.955336e-01 1.224156e-01 -2.389598e+00 160 102 41
2.032021e-01 1.343439e-01 -2.334574e+00 83 18 2
-4.174436e-01 1.243326e-01 -2.373590e+00 168 111 59
2.143238e-01 1.361840e-01 -2.332090e+00 148 85 32
-4.062716e-01 1.341113e-01 -2.362471e+00 96 35 9
-4.308278e-01 1.298570e-01 -2.384153e+00 88 21 10
-4.313915e-01 1.305861e-01 -2.385588e+00 88 21 10
-1.728350e-01 1.395509e-01 -2.432032e+00 149 94 28
-2.982574e-01 1.420763e-01 -2.371395e+00 183 118 60
4.212278e-02 1.520911e-01 -2.325028e+00 108 40 1
4.271492e-02 1.518883e-01 -2.333775e+00 108 40 1
1.407266e-01 1.701727e-01 -2.356195e+00 142 81 24
-4.727346e-01 1.593224e-01 -2.379423e+00 151 98 27
-5.342934e-01 1.598116e-01 -2.392795e+00 99 38 11
-4.938860e-01 1.635470e-01 -2.436449e+00 88 35 0
-9.366731e-01 1.522507e-01 -2.553180e+00 130 82 5
-4.657773e-01 1.680766e-01 -2.399021e+00 75 20 2
-5.236823e-01 1.683174e-01 -2.401675e+00 166 120 52
-8.923543e-01 1.589647e-01 -2.566384e+00 138 87 22
-5.016953e-01 1.690039e-01 -2.410600e+00 158 110 46
-5.016953e-01 1.690039e-01 -2.410600e+00 158 110 46
4.019446e-01 1.912335e-01 -2.355599e+00 153 99 37
-6.341965e-01 1.734243e-01 -2.448012e+00 102 49 2
-6.327368e-01 1.731510e-01 -2.440802e+00 102 49 2
-5.907363e-01 1.749407e-01 -2.385669e+00 154 104 40
-1.517415e-01 1.855457e-01 -2.342451e+00 153 95 38
-4.766255e-01 1.798792e-01 -2.377192e+00 161 109 52
-6.524535e-01 1.756159e-01 -2.438983e+00 96 40 3
-7.281937e-01 1.767599e-01 -2.455979e+00 152 99 32
-7.235586e-01 1.769656e-01 -2.436842e+00 152 99 32
-1.632688e-01 1.899394e-01 -2.332484e+00 69 6 0
4.382431e-01 1.974205e-01 -2.386697e+00 178 114 63
-4.872724e-01 1.851963e-01 -2.373911e+00 101 41 5
2.766183e-02 2.047865e-01 -2.324040e+00 75 11 0
2.941962e-02 2.045198e-01 -2.342437e+00 75 11 0
-8.527637e-01 1.861849e-01 -2.524920e+00 153 105 32
-8.464569e-01 2.049153e-01 -2.516044e+00 121 74 6
-9.048200e-01 2.009760e-01 -2.507936e+00 119 71 7
-8.195463e-01 2.131117e-01 -2.498255e+00 95 47 1
4.662338e-02 2.337572e-01 -2.306316e+00 83 22 9
-2.967800e-01 2.263556e-01 -2.377772e+00 183 105 54
-3.818731e-01 2.298856e-01 -2.390258e+00 77 16 1
-3.874903e-01 2.302882e-01 -2.433093e+00 77 16 1
1.919570e-01 2.497092e-01 -2.337119e+00 150 86 33
-1.548113e-01 2.450666e-01 -2.352008e+00 168 112 65
-1.551946e-01 2.447949e-01 -2.361620e+00 168 112 65
-8.734900e-01 2.392989e-01 -2.534302e+00 161 107 42
-4.298412e-01 2.500619e-01 -2.394037e+00 74 13 0
-3.779047e-01 2.516346e-01 -2.345214e+00 97 33 5
-1.604390e-01 2.591791e-01 -2.388381e+00 92 31 0
-1.600401e-01 2.583636e-01 -2.366883e+00 92 31 0
-4.032545e-01 2.521617e-01 -2.354869e+00 89 34 1
3.855161e-01 2.809818e-01 -2.351630e+00 110 52 0
4.688332e-01 2.917906e-01 -2.391534e+00 178 115 73
4.818125e-01 2.928878e-01 -2.433291e+00 178 115 73
-9.692402e-01 2.657165e-01 -2.561531e+00 120 66 4
4.877309e-01 2.930351e-01 -2.416123e+00 115 63 16
-8.622960e-01 2.912014e-01 -2.494504e+00 164 104 37
-9.135140e-01 2.907994e-01 -2.545091e+00 86 33 2
4.080410e-01 3.154004e-01 -2.367673e+00 129 72 6
3.999610e-01 3.212379e-01 -2.391596e+00 153 100 33
-9.130066e-01 3.021946e-01 -2.501302e+00 162 114 49
-5.482222e-01 3.076786e-01 -2.418961e+00 187 98 63
-5.662978e-01 3.104634e-01 -2.441470e+00 131 51 14
-9.150881e-01 3.107148e-01 -2.549482e+00 103 50 5
-9.057587e-01 3.085509e-01 -2.518253e+00 103 50 5
-9.351894e-01 3.125512e-01 -2.483602e+00 110 58 8
-8.449755e-01 3.139772e-01 -2.512660e+00 170 123 63
1.419936e-01 3.319594e-01 -2.330038e+00 92 27 1
1.446188e-01 3.347348e-01 -2.339727e+00 92 27 1
1.181819e-01 3.353276e-01 -2.359466e+00 66 8 4
-9.201573e-01 3.223954e-01 -2.500807e+00 121 79 6
-9.266919e-01 3.226090e-01 -2.528132e+00 121 79 6
3.567299e-01 3.443066e-01 -2.369905e+00 155 101 32
4.512771e-02 3.418239e-01 -2.341581e+00 72 13 7
1.485146e-01 3.537358e-01 -2.325144e+00 98 36 0
1.485146e-01 3.537358e-01 -2.325144e+00 98 36 0
-2.043845e-01 3.520956e-01 -2.344383e+00 176 110 34
-8.227513e-01 3.437809e-01 -2.473130e+00 178 104 68
4.105661e-01 3.688039e-01 -2.379107e+00 128 69 5
-1.851682e-01 3.548232e-01 -2.361249e+00 146 88 30
3.850288e-01 3.676474e-01 -2.339403e+00 156 103 36
3.970506e-01 3.709422e-01 -2.380212e+00 156 103 36
-1.009997e-01 3.565715e-01 -2.342400e+00 93 31 0
-1.056353e+00 3.568450e-01 -2.607852e+00 130 65 19
1.812914e-01 3.706921e-01 -2.361348e+00 73 26 8
1.993042e-01 3.746472e-01 -2.327609e+00 77 32 3
2.545626e-01 3.848124e-01 -2.441553e+00 159 112 61
-9.507362e-02 3.737331e-01 -2.320341e+00 97 33 7
-1.720131e-01 3.744839e-01 -2.360014e+00 76 21 0
-8.411680e-01 3.642698e-01 -2.437402e+00 179 95 58
-8.631358e-01 3.703875e-01 -2.514374e+00 179 95 58
-1.274836e-01 3.773869e-01 -2.360517e+00 86 26 6
-1.005670e-02 3.828125e-01 -2.335023e+00 151 94 29
2.576629e-01 3.934440e-01 -2.355736e+00 81 32 0
-3.459593e-02 3.880698e-01 -2.344044e+00 80 27 10
-3.438770e-02 3.885749e-01 -2.340959e+00 80 27 10
-8.952664e-02 3.894654e-01 -2.345446e+00 105 47 9
-8.685638e-02 3.915069e-01 -2.348852e+00 105 47 9
-7.886325e-01 3.889653e-01 -2.398553e+00 184 81 48
-1.298661e-01 4.003839e-01 -2.356279e+00 163 104 25
2.664411e-01 4.069176e-01 -2.326623e+00 145 91 31
-9.259588e-02 4.037332e-01 -2.356996e+00 164 110 42
-6.192649e-02 4.230734e-01 -2.390206e+00 128 37 2
-7.760358e-01 4.132348e-01 -2.385362e+00 182 84 47
-7.760358e-01 4.132348e-01 -2.385362e+00 182 84 47
3.706531e-01 4.424987e-01 -2.390896e+00 110 53 0
2.741561e-01 4.931843e-01 -2.359367e+00 172 122 55
-4.967968e-01 5.848736e-01 -2.477744e+00 197 81 39
-5.205878e-01 5.879085e-01 -2.476540e+00 206 99 55
-5.762668e-01 5.918803e-01 -2.440915e+00 239 145 101
-1.459827e-01 6.286509e-01 -2.426431e+00 186 114 78
4.760221e-01 6.377963e-01 -2.393492e+00 145 83 40
4.854085e-01 6.456264e-01 -2.420776e+00 145 83 40
-7.040183e-01 6.242833e-01 -2.448395e+00 193 90 49
-8.695073e-02 6.613007e-01 -2.523181e+00 222 150 120
-1.237843e-01 6.640549e-01 -2.493939e+00 131 28 9
-1.021671e-01 6.593633e-01 -2.461917e+00 132 30 9
-1.889665e-01 7.022785e-01 -2.346625e+00 39 32 38
4.785410e-01 7.492759e-01 -2.434752e+00 177 89 46
-1.192170e-01 7.233882e-01 -2.364961e+00 89 83 98
-1.677436e-01 7.334826e-01 -2.417507e+00 16 10 20
-1.891400e-01 7.350856e-01 -2.404275e+00 14 12 26
-6.902203e-01 7.453499e-01 -2.530460e+00 79 77 90
4.226471e-01 8.546109e-01 -2.422098e+00 82 25 5
4.360232e-01 9.020125e-01 -2.454465e+00 30 18 23
-6.933547e-01 1.091885e+00 -2.602508e+00 54 53 67
3.587647e-02 1.237728e+00 -2.585818e+00 57 44 61
-2.189781e-02 1.225482e+00 -2.555600e+00 111 100 110
-1.815295e-02 1.231429e+00 -2.556660e+00 111 100 110
-2.303471e-01 1.222317e+00 -2.568559e+00 56 44 55
-3.408670e-01 1.239680e+00 -2.618237e+00 58 47 63
-4.059525e-01 1.268665e+00 -2.705960e+00 117 103 111
-4.115893e-01 1.281611e+00 -2.741984e+00 117 103 111
-6.284183e-02 1.246157e+00 -2.564471e+00 62 47 61
4.706478e-02 1.255627e+00 -2.564357e+00 63 49 66
-2.904599e-03 1.265318e+00 -2.597138e+00 121 108 118
1.415088e-01 1.247852e+00 -2.521409e+00 112 96 101
-1.471402e-01 1.277559e+00 -2.627564e+00 120 108 119
-1.631025e-01 1.277229e+00 -2.632759e+00 60 49 62
-1.614965e-01 1.269181e+00 -2.610288e+00 60 49 62
-4.784153e-02 1.282435e+00 -2.615159e+00 124 104 106
-1.876476e-01 1.275649e+00 -2.621322e+00 58 46 60
1.217950e-01 1.249729e+00 -2.512401e+00 113 99 105
-8.142821e-02 1.278154e+00 -2.606454e+00 122 108 110
-9.941177e-02 1.285138e+00 -2.630507e+00 63 47 58
-7.450636e-01 1.307464e+00 -2.761538e+00 56 40 52
-7.421046e-01 1.312966e+00 -2.768193e+00 56 40 52
-2.135509e-01 1.274280e+00 -2.603575e+00 66 54 61
-2.910051e-01 1.308774e+00 -2.690436e+00 46 36 49
-3.456704e-01 1.310918e+00 -2.699099e+00 50 38 48
-3.425123e-01 1.316329e+00 -2.707295e+00 50 38 48
-3.621841e-01 1.307860e+00 -2.696563e+00 51 37 44
-3.176569e-01 1.298509e+00 -2.661381e+00 29 18 35
-1.266641e-01 1.322619e+00 -2.700939e+00 112 97 101
-1.266641e-01 1.322619e+00 -2.700939e+00 112 97 101
-7.551546e-01 1.339474e+00 -2.796671e+00 112 99 116
-7.562139e-01 1.339244e+00 -2.797671e+00 112 99 116
7.144965e-02 1.274873e+00 -2.548109e+00 59 46 55
8.159526e-02 1.324503e+00 -2.672108e+00 59 46 55
-3.096998e-01 1.337796e+00 -2.735041e+00 108 96 106
-7.206188e-01 1.316626e+00 -2.715351e+00 61 47 62
-6.836441e-02 1.321219e+00 -2.642353e+00 65 50 57
-6.884830e-02 1.315341e+00 -2.628441e+00 65 50 57
-1.199529e-01 1.324738e+00 -2.650527e+00 65 52 64
-1.210764e-01 1.324688e+00 -2.656185e+00 65 52 64
-2.284323e-01 1.359029e+00 -2.756297e+00 62 48 61
-3.810762e-01 1.334187e+00 -2.707330e+00 69 52 60
-4.328157e-02 1.149862e+00 -2.228373e+00 116 101 100
-1.162538e+00 1.372119e+00 -2.832827e+00 103 84 82
4.247166e-01 1.321650e+00 -2.516634e+00 109 94 87
4.474544e-01 1.322395e+00 -2.471030e+00 110 93 69
-1.166819e+00 1.441582e+00 -2.886820e+00 197 182 142
3.893338e-01 1.322292e+00 -2.412251e+00 87 72 50
-1.111729e+00 1.491598e+00 -2.916332e+00 199 186 145
3.040368e-02 1.592968e+00 -2.878565e+00 37 30 46
3.352081e-02 1.612803e+00 -2.920109e+00 37 30 46
-5.565276e-01 1.619889e+00 -2.986661e+00 129 118 125
2.428395e-02 1.590684e+00 -2.852802e+00 85 76 86
-1.368929e-02 1.566517e+00 -2.801726e+00 100 88 96
7.591625e-01 -5.363962e-01 -2.916131e+00 199 177 138
1.301272e+00 -7.074643e-01 -2.091157e+00 162 118 71
1.301272e+00 -7.074643e-01 -2.091157e+00 162 118 71
-4.643023e-01 -1.224887e+00 -1.734634e+00 16 90 15
7.753300e-01 -1.276108e+00 -2.775321e+00 114 93 59
-3.052692e-01 1.753683e-01 -2.364196e+00 169 110 49
5.355652e-01 -8.729668e-01 -1.932051e+00 188 203 140
8.490645e-01 -7.987502e-01 -2.018352e+00 7 80 9
1.024445e+00 -7.396586e-01 -2.049341e+00 22 88 20
1.092875e+00 -7.229564e-01 -2.057479e+00 22 84 10
8.229490e-01 -7.911122e-01 -2.033333e+00 198 209 157
1.121950e+00 -7.743179e-01 -2.023548e+00 163 174 125
9.220971e-01 -7.593437e-01 -2.051114e+00 30 115 30
-4.189695e-01 2.693493e-01 -2.342592e+00 149 89 23
5.730863e-02 3.305538e-01 -2.398485e+00 85 32 6
-5.235616e-02 4.029478e-01 -2.357292e+00 146 85 27
9.448984e-01 -1.406299e+00 -1.799981e+00 98 90 64
8.474185e-01 -8.096707e-01 -1.988189e+00 26 96 17
1.465359e+00 -6.497787e-01 -2.118345e+00 124 116 90
-6.092463e-02 -3.627051e-01 -2.442752e+00 82 2 0
-6.598309e-01 -3.193633e-01 -2.442862e+00 98 47 1
5.913278e-01 -5.665010e-01 -2.705683e+00 212 193 156
2.546068e+00 -1.532823e+00 -1.696458e+00 186 177 131
1.993832e+00 -9.119002e-01 -1.720709e+00 92 90 69
3.400047e-01 -9.327004e-01 -1.931771e+00 15 71 12
6.355105e-01 -9.246173e-01 -1.906981e+00 27 35 12
-4.248658e-01 -9.273484e-01 -2.386231e+00 101 43 0
1.045992e-01 -6.152335e-01 -2.469495e+00 82 0 0
1.912601e-01 -5.933488e-01 -2.512790e+00 127 38 23
-9.003559e-03 -5.271970e-01 -2.433606e+00 93 12 5
-1.257958e-01 -4.924185e-01 -2.412660e+00 130 40 6
-3.250043e-01 -2.554989e-01 -2.402457e+00 90 40 2
-8.739960e-01 -1.308417e-01 -2.503481e+00 114 63 2
-8.742910e-01 -1.291476e-01 -2.499946e+00 114 63 2
-3.335261e-01 -4.380829e-02 -2.383489e+00 92 41 3
-7.802142e-01 -2.541612e-02 -2.459637e+00 151 104 34
-3.032852e-02 2.143066e-02 -2.394647e+00 84 24 2
-8.059292e-01 3.032233e-02 -2.454851e+00 154 104 35
-3.413484e-01 1.131127e-01 -2.361967e+00 94 31 0
-3.779252e-01 1.309270e-01 -2.337055e+00 105 44 2
-9.130839e-01 9.952252e-02 -2.483707e+00 123 71 0
-3.599053e-01 1.429109e-01 -2.356069e+00 153 99 24
-3.491094e-01 2.354387e-01 -2.336478e+00 81 21 0
-9.065393e-01 2.209878e-01 -2.456243e+00 155 110 37
1.983536e-01 2.288851e-01 -2.495444e+00 96 32 0
-1.346552e-01 2.958844e-01 -2.364888e+00 69 19 0
-9.189506e-01 3.367923e-01 -2.457935e+00 162 111 46
1.037124e+00 -1.129828e+00 -1.489115e+00 30 28 19
1.131275e+00 -1.063873e+00 -1.648540e+00 109 108 95
7.319048e-01 -8.684892e-01 -1.940898e+00 36 108 36
7.315144e-01 -8.756484e-01 -1.945535e+00 36 108 36
8.387755e-01 -8.719938e-01 -1.960494e+00 112 138 91
8.898500e-01 -8.108156e-01 -1.995629e+00 39 84 22
1.427401e+00 -6.525188e-01 -2.124290e+00 119 101 64
-3.007280e-01 -6.858525e-01 -2.401992e+00 111 40 0
-3.142087e-01 -3.846396e-01 -2.406668e+00 112 46 0
-2.527350e-01 -1.861235e-01 -2.382508e+00 168 85 47
8.770951e-01 -4.724019e-01 -2.836637e+00 28 19 2
-8.701321e-01 -1.578271e-01 -2.500573e+00 152 108 35
-3.541390e-01 -4.124798e-02 -2.383908e+00 151 105 31
-3.523956e-01 -4.377725e-02 -2.388136e+00 151 105 31
-4.026083e-01 -3.190141e-02 -2.381186e+00 95 45 3
-3.863223e-01 -3.121320e-02 -2.385923e+00 150 102 31
-2.052385e-01 5.845667e-02 -2.399176e+00 135 40 2
-5.656459e-01 1.831691e-01 -2.357687e+00 159 109 41
-8.817260e-01 2.299919e-01 -2.472108e+00 105 60 2
-9.352681e-01 2.255836e-01 -2.503460e+00 152 110 38
1.272792e-01 3.408914e-01 -2.431056e+00 139 80 24
-9.579339e-01 4.118673e-01 -2.440129e+00 178 96 58
8.650768e-01 -1.299981e+00 -1.799605e+00 51 44 22
1.021459e+00 -1.048322e+00 -1.697679e+00 85 86 72
2.630790e+00 -1.122357e+00 -1.783731e+00 42 37 18
2.640034e+00 -1.106406e+00 -1.791404e+00 54 48 16
2.135072e+00 -8.855560e-01 -1.736056e+00 101 97 88
7.894403e-01 -8.728979e-01 -1.948102e+00 144 170 124
8.158809e-01 -8.200755e-01 -1.995210e+00 210 226 161
9.322403e-01 -8.197111e-01 -1.989452e+00 170 198 143
7.718722e-01 -8.208377e-01 -1.999186e+00 27 104 19
1.005834e+00 -8.197358e-01 -2.004127e+00 21 65 6
9.240465e-01 -7.952848e-01 -2.004715e+00 171 193 134
1.513306e+00 -8.025274e-01 -2.004950e+00 64 62 50
1.059045e+00 -7.562053e-01 -2.024314e+00 45 84 26
1.084144e+00 -7.491818e-01 -2.029763e+00 51 65 10
1.130114e+00 -7.482058e-01 -2.037548e+00 54 72 12
1.127524e+00 -7.262656e-01 -2.042849e+00 143 104 55
1.423570e+00 -6.628357e-01 -2.100521e+00 124 101 69
1.537660e+00 -6.607354e-01 -2.233777e+00 21 17 6
5.948748e-02 -6.128179e-01 -2.475402e+00 122 36 18
5.571560e-01 -6.508731e-01 -2.717291e+00 94 19 11
-2.130359e-01 -3.546900e-01 -2.393962e+00 167 69 42
-2.115358e-01 -3.571408e-01 -2.398377e+00 167 69 42
-4.101323e-01 -1.359197e-01 -2.389098e+00 148 97 18
-2.821393e-01 -1.213413e-02 -2.360276e+00 128 56 16
-3.737882e-01 2.508062e-01 -2.325635e+00 152 99 34
6.102946e+00 3.775199e+00 -4.511147e+00 11 12 7
7.250278e-01 -5.656529e-01 -2.188918e+00 22 17 11
-9.706552e-01 -1.845021e+00 -2.200455e+00 25 79 30
-9.706552e-01 -1.845021e+00 -2.200455e+00 25 79 30
6.808556e-01 -8.061317e-01 -2.195093e+00 14 9 3
1.214215e+00 -8.251292e-01 -2.005915e+00 6 6 4
-8.243800e-03 -1.314212e+00 -2.034483e+00 20 82 17
-1.167338e+00 8.811901e-01 -2.700558e+00 183 168 127
3.133474e-01 1.239591e+00 -2.436212e+00 98 83 77
1.553969e-01 -1.265562e+00 -2.064790e+00 18 78 18
-1.074946e+00 -1.709325e+00 -2.071638e+00 180 167 127
-6.161726e-01 -1.700333e+00 -2.168377e+00 32 82 28
-6.161726e-01 -1.700333e+00 -2.168377e+00 32 82 28
-9.541676e-01 -1.636866e+00 -2.081804e+00 19 78 24
-4.401000e-01 -1.581474e+00 -2.046416e+00 160 143 99
-2.934031e-01 -1.573623e+00 -2.116420e+00 170 153 108
2.683140e+00 -1.058959e+00 -1.874622e+00 178 164 125
4.867323e-01 -8.991565e-01 -2.503357e+00 23 3 0
-1.355887e-01 -1.478481e+00 -2.091745e+00 175 157 110
2.373285e-02 -1.402222e+00 -2.085787e+00 179 159 110
-2.818953e-01 -1.331706e+00 -2.081807e+00 38 91 40
-2.269843e-01 -1.329038e+00 -2.111601e+00 29 83 27
-7.025318e-02 -1.224967e+00 -2.060577e+00 25 77 21
4.000748e-01 -1.025055e+00 -2.069072e+00 18 67 12
4.948811e-01 -7.577859e-01 -2.182359e+00 14 9 0
-4.149014e-01 -3.140094e-02 -2.389680e+00 101 58 19
-1.353856e-01 -1.346037e+00 -2.060263e+00 135 145 97
2.133662e-02 -1.261464e+00 -2.038369e+00 122 138 87
3.366025e-01 -1.247068e+00 -2.068368e+00 174 156 107
2.431507e-01 -1.216126e+00 -2.049303e+00 166 177 120
8.427268e-01 -8.386975e-01 -2.022426e+00 195 204 149
3.723990e-02 -6.045992e-01 -2.414752e+00 63 13 6
-5.122310e-01 -3.674920e-01 -2.356369e+00 96 46 10
-3.821112e-02 7.873751e-02 -2.309756e+00 124 71 64
1.297023e-01 1.120281e-01 -2.297549e+00 63 20 3
-7.052700e-02 3.118569e-01 -2.345421e+00 82 53 32
-7.052700e-02 3.118569e-01 -2.345421e+00 82 53 32
-8.818289e-01 2.944258e-01 -2.486689e+00 83 35 0
5.996607e-02 3.317905e-01 -2.343917e+00 60 24 9
-1.705859e-01 3.617210e-01 -2.344087e+00 91 43 23
-8.377534e-01 4.122181e-01 -2.490075e+00 143 68 36
5.738299e+00 2.651523e+00 -3.894367e+00 15 15 2
1.332583e+00 -1.918932e+00 -1.920405e+00 22 19 1
1.000571e+00 -1.496806e+00 -1.667702e+00 90 84 56
1.340302e+00 -1.378918e+00 -1.738582e+00 71 67 44
1.607567e+00 -1.290401e+00 -1.801566e+00 59 57 44
1.885182e+00 -1.111892e+00 -1.812609e+00 74 73 53
1.869549e+00 -1.105580e+00 -1.800274e+00 74 73 53
5.728535e-01 -1.097600e+00 -2.042160e+00 34 48 13
2.714528e-01 -1.120129e+00 -2.078937e+00 180 200 128
2.584879e+00 -9.805080e-01 -1.920336e+00 187 174 130
2.172352e+00 -6.386021e-01 -2.048231e+00 187 174 131
-7.796939e-01 -7.734137e-01 -2.446931e+00 95 42 5
-7.796939e-01 -7.734137e-01 -2.446931e+00 95 42 5
7.941135e-02 -5.588619e-01 -2.316110e+00 59 1 2
5.705003e-02 -5.457283e-01 -2.313335e+00 119 32 13
1.604565e-01 -4.912509e-01 -2.321354e+00 63 2 2
6.021055e-02 -3.751713e-01 -2.419237e+00 54 7 4
6.060988e-02 -3.739562e-01 -2.413026e+00 54 7 4
-4.877543e-02 -3.463344e-01 -2.316121e+00 120 32 14
1.765644e+00 -2.480330e-01 -2.392990e+00 18 12 1
-6.316651e-01 -1.059119e-01 -2.437254e+00 134 82 17
-8.262107e-01 -1.196211e-01 -2.503643e+00 142 97 29
-7.925891e-01 -7.804300e-02 -2.471851e+00 134 85 26
-7.027247e-01 -4.182875e-02 -2.444813e+00 138 90 22
-7.026413e-01 -4.179862e-02 -2.445083e+00 138 90 22
2.555305e-01 8.087011e-02 -2.468423e+00 65 23 7
2.069238e-01 2.058611e-01 -2.368646e+00 86 40 16
-1.149848e-01 1.926423e-01 -2.371538e+00 116 72 44
-1.149848e-01 1.926423e-01 -2.371538e+00 116 72 44
-1.103949e+00 2.503443e-01 -2.684916e+00 127 87 41
2.887350e-01 3.422929e-01 -2.364623e+00 80 30 0
-7.142909e-01 3.087828e-01 -2.383797e+00 125 34 7
-8.612256e-01 3.395051e-01 -2.465689e+00 127 37 10
4.876769e-01 9.281370e-01 -2.478062e+00 199 183 142
1.135663e-03 1.244644e+00 -2.594577e+00 54 42 56
7.247415e-02 1.250211e+00 -2.568322e+00 55 39 54
-3.827458e-01 1.270047e+00 -2.695906e+00 52 41 58
-1.459407e-01 1.300849e+00 -2.665509e+00 97 82 88
-1.456790e-01 1.305237e+00 -2.680770e+00 97 82 88
-1.030545e+00 -1.689936e+00 -2.059921e+00 38 92 5
-8.448964e-01 -1.645901e+00 -2.121238e+00 173 200 144
-1.058528e-01 -3.008579e-02 -2.316159e-01 42 52 4
-1.974807e-01 -1.442909e+00 -2.086702e+00 28 71 2
2.820075e+00 -1.249487e+00 -1.858725e+00 175 166 112
-1.025050e-01 6.166457e-02 -1.232138e-01 168 194 134
2.749937e+00 -1.191354e+00 -1.813305e+00 177 169 121
2.026326e+00 -9.978209e-01 -1.793374e+00 73 72 50
2.039909e+00 -1.005137e+00 -1.804251e+00 73 72 50
4.866026e-01 -9.174015e-01 -2.406145e+00 139 107 77
-7.684807e-01 -8.848260e-01 -2.462737e+00 100 50 15
-8.031514e-01 -8.776348e-01 -2.485096e+00 93 40 6
-8.031514e-01 -8.776348e-01 -2.485096e+00 93 40 6
2.534895e-01 -8.017585e-01 -2.366930e+00 65 2 2
-7.844340e-01 -8.275771e-01 -2.466969e+00 95 41 3
-7.844340e-01 -8.275771e-01 -2.466969e+00 95 41 3
-4.875475e-01 -7.673297e-01 -2.378670e+00 89 24 0
-8.239484e-01 -8.029174e-01 -2.469201e+00 87 35 0
-4.181679e-01 -7.477349e-01 -2.357665e+00 133 69 28
-8.661365e-01 -7.526639e-01 -2.500314e+00 96 46 4
-8.661365e-01 -7.526639e-01 -2.500314e+00 96 46 4
-3.110300e-01 -6.819795e-01 -2.347017e+00 136 73 20
-3.188697e-01 -5.825529e-01 -2.319221e+00 133 71 18
-3.194264e-01 -5.932906e-01 -2.358759e+00 133 71 18
1.657307e-02 -4.942173e-01 -2.354356e+00 63 0 3
3.369216e-01 -4.216122e-01 -2.396247e+00 112 36 24
3.369216e-01 -4.216122e-01 -2.396247e+00 112 36 24
-3.116808e-01 -4.168598e-01 -2.355148e+00 95 28 1
-4.588300e-01 -4.233649e-01 -2.372953e+00 82 31 0
-4.588756e-01 -4.261100e-01 -2.377335e+00 82 31 0
-6.411937e-02 -3.652474e-01 -2.327399e+00 70 1 0
1.266862e-01 -1.607824e-01 -2.289937e+00 142 56 36
1.355311e-01 -1.713901e-01 -2.354412e+00 142 56 36
2.858308e-01 -1.604690e-01 -2.347319e+00 139 50 32
2.858908e-01 -1.604566e-01 -2.347462e+00 139 50 32
-8.033376e-01 -1.214789e-01 -2.467871e+00 139 93 29
-9.210106e-01 -1.178116e-01 -2.543563e+00 90 45 1
-9.210106e-01 -1.178116e-01 -2.543563e+00 90 45 1
-7.327957e-01 -9.066669e-02 -2.457632e+00 135 86 27
-7.796453e-01 -2.546851e-02 -2.459303e+00 140 95 27
5.101318e-02 5.698313e-02 -2.407745e+00 122 66 13
-8.523569e-01 3.617473e-02 -2.508060e+00 143 95 30
-8.886962e-01 5.138455e-02 -2.492352e+00 134 90 28
-8.776207e-01 1.242938e-01 -2.512104e+00 100 58 1
4.205080e-02 1.962890e-01 -2.333062e+00 128 66 21
-1.389104e-01 2.416886e-01 -2.352368e+00 68 17 5
-1.393180e-01 2.405199e-01 -2.362617e+00 68 17 5
-9.471392e-01 2.255214e-01 -2.545936e+00 139 100 33
-7.664765e-01 3.156386e-01 -2.467262e+00 127 37 8
2.707190e-02 3.465952e-01 -2.331429e+00 128 77 28
2.707190e-02 3.465952e-01 -2.331429e+00 128 77 28
-7.891491e-01 3.216920e-01 -2.481410e+00 124 36 6
-8.039693e-01 3.243902e-01 -2.435049e+00 126 39 8
-1.356666e-01 3.955916e-01 -2.364893e+00 146 88 22
-1.355009e-01 3.956713e-01 -2.367093e+00 146 88 22
-1.188466e+00 5.265522e-01 -2.868102e+00 132 93 47
3.657439e-01 5.326534e-01 -2.357563e+00 156 104 54
3.657439e-01 5.326534e-01 -2.357563e+00 156 104 54
-8.874805e-01 1.344941e+00 -2.812729e+00 56 44 52
5.266822e+00 2.594558e+00 -3.724731e+00 110 98 76
1.674837e+00 -2.090979e+00 -1.859483e+00 16 13 0
1.614756e+00 -2.002762e+00 -1.869998e+00 62 62 50
1.310007e+00 -1.889514e+00 -1.877440e+00 19 16 2
1.662778e+00 -1.722003e+00 -1.782254e+00 85 85 75
1.709261e+00 -1.768109e+00 -1.826680e+00 85 85 75
2.786081e+00 -1.781329e+00 -1.856299e+00 165 157 111
-1.094894e+00 -1.807977e+00 -2.147982e+00 160 149 104
-8.415504e-01 -1.779985e+00 -2.128043e+00 133 150 95
-8.415504e-01 -1.779985e+00 -2.128043e+00 133 150 95
-7.686534e-01 -1.724791e+00 -2.073897e+00 132 145 95
-1.078189e+00 -1.776223e+00 -2.142333e+00 205 217 154
2.788821e+00 -1.652330e+00 -1.878390e+00 70 68 47
-9.231515e-01 -1.696830e+00 -2.125483e+00 59 141 55
-5.799811e-01 -1.682281e+00 -2.125371e+00 49 68 9
1.392688e+00 -1.430811e+00 -1.804942e+00 72 67 48
1.248710e+00 -1.382587e+00 -1.831622e+00 51 51 43
1.221829e+00 -1.353792e+00 -1.797221e+00 51 51 43
-3.754375e-02 -1.388244e+00 -2.081089e+00 143 156 105
-1.139514e-01 6.338760e-02 -1.180654e-01 190 177 146
1.265478e+00 -1.201465e+00 -1.826011e+00 91 91 79
-1.173598e-01 -1.312404e+00 -2.090981e+00 132 204 120
-1.177712e-01 -1.310629e+00 -2.088002e+00 132 204 120
1.477263e-01 -1.190449e+00 -2.067274e+00 19 36 1
2.725479e+00 -1.089723e+00 -1.870198e+00 186 171 137
2.679576e+00 -1.067615e+00 -1.852402e+00 187 171 138
4.460222e-01 -1.167124e+00 -2.055166e+00 43 52 1
3.490850e-01 -1.155868e+00 -2.053206e+00 24 70 20
8.563322e-01 -1.077876e+00 -2.096593e+00 19 14 3
4.626667e-01 -1.043090e+00 -2.055474e+00 34 47 4
3.219616e-01 -1.041143e+00 -2.094462e+00 159 152 116
2.529808e+00 -9.470241e-01 -1.915552e+00 53 44 20
5.694590e-01 -9.391323e-01 -2.049704e+00 8 50 0
2.432591e+00 -8.683310e-01 -1.941351e+00 45 34 11
2.199892e+00 -7.781139e-01 -1.802496e+00 63 56 46
7.902522e-01 -8.726935e-01 -2.033988e+00 25 77 2
-2.762258e-01 -9.746175e-01 -2.330518e+00 152 83 44
-3.537264e-01 -9.586232e-01 -2.308064e+00 162 101 57
5.854002e-01 -9.715390e-01 -2.381164e+00 108 88 59
8.717964e-01 -8.018535e-01 -2.030072e+00 23 63 8
2.091898e+00 -6.855923e-01 -1.808957e+00 47 37 15
4.940757e-02 -9.062555e-01 -2.350613e+00 71 3 1
1.079681e+00 -7.448692e-01 -2.021532e+00 28 40 2
-6.289839e-01 -9.122411e-01 -2.422757e+00 78 15 1
2.291183e+00 -7.334407e-01 -2.055437e+00 190 178 137
2.275899e+00 -7.320374e-01 -2.058118e+00 45 36 15
9.721644e-01 -7.195541e-01 -2.053630e+00 17 16 0
-7.184824e-01 -8.916696e-01 -2.446886e+00 82 28 0
2.644759e-01 -8.255861e-01 -2.374953e+00 113 29 18
-3.545709e-01 -8.137823e-01 -2.342562e+00 138 76 29
-4.861801e-01 -8.381672e-01 -2.414215e+00 82 24 3
-8.452838e-01 -8.425896e-01 -2.506955e+00 139 86 32
-8.452838e-01 -8.425896e-01 -2.506955e+00 139 86 32
-9.113556e-01 -8.599827e-01 -2.550799e+00 160 97 51
-9.102609e-01 -8.594252e-01 -2.548980e+00 160 97 51
-7.328295e-01 -7.931952e-01 -2.445611e+00 82 19 1
-3.377631e-01 -7.433386e-01 -2.343023e+00 134 68 19
-2.969349e-01 -7.082587e-01 -2.336962e+00 101 32 4
-7.843813e-01 -7.582211e-01 -2.461171e+00 140 78 29
-3.400087e-01 -6.911964e-01 -2.335577e+00 134 71 23
-6.074807e-01 -7.149114e-01 -2.404804e+00 82 17 1
-8.902743e-01 -7.317778e-01 -2.503408e+00 95 40 0
-7.287752e-01 -6.955920e-01 -2.438869e+00 80 20 0
-6.927134e-01 -6.921138e-01 -2.446883e+00 139 77 32
-5.046695e-01 -6.609893e-01 -2.375167e+00 92 25 0
-4.090049e-01 -6.370410e-01 -2.349204e+00 61 3 0
-5.034548e-01 -6.288432e-01 -2.371179e+00 86 15 2
-5.034188e-01 -6.285159e-01 -2.369375e+00 86 15 2
-3.520681e-01 -6.171108e-01 -2.408308e+00 129 68 21
-3.337141e-01 -5.781753e-01 -2.332169e+00 65 5 0
-5.098420e-01 -5.857682e-01 -2.385322e+00 87 21 2
-5.099418e-01 -5.857590e-01 -2.387569e+00 87 21 2
-8.899667e-02 -5.430615e-01 -2.295601e+00 75 4 4
-7.392776e-01 -5.995893e-01 -2.448650e+00 86 21 0
-7.943827e-01 -5.891346e-01 -2.472727e+00 81 25 9
-3.729684e-01 -5.173251e-01 -2.342467e+00 141 81 35
-5.853657e-02 -5.013909e-01 -2.318795e+00 70 4 2
-5.853657e-02 -5.013909e-01 -2.318795e+00 70 4 2
-8.856128e-01 -5.595250e-01 -2.514751e+00 91 38 0
-5.150103e-01 -5.119331e-01 -2.374543e+00 89 18 2
-5.152188e-01 -5.131740e-01 -2.378848e+00 89 18 2
-8.911489e-01 -5.343422e-01 -2.522503e+00 143 91 26
3.085586e-01 -4.633259e-01 -2.332440e+00 119 31 18
2.852984e-01 -4.692211e-01 -2.390849e+00 59 0 0
5.551219e-01 -4.837136e-01 -2.464116e+00 22 10 4
9.603891e-02 -3.961800e-01 -2.321734e+00 75 5 6
1.829124e+00 -3.387759e-01 -2.280238e+00 32 24 7
8.693845e-02 -3.463325e-01 -2.304443e+00 63 1 1
4.570174e-03 -3.243304e-01 -2.355872e+00 60 3 6
1.887211e+00 -2.912706e-01 -2.438709e+00 198 186 138
3.249172e-01 -2.902336e-01 -2.518957e+00 113 34 24
1.826828e+00 -2.454575e-01 -2.491793e+00 192 177 146
-7.650208e-01 -3.040375e-01 -2.483541e+00 152 96 41
-7.536559e-01 -2.949348e-01 -2.436207e+00 152 96 41
3.180695e-01 -2.231990e-01 -2.277762e+00 116 31 23
-9.417558e-01 -2.977237e-01 -2.533222e+00 164 106 55
-9.417558e-01 -2.977237e-01 -2.533222e+00 164 106 55
-3.936334e-01 -2.214670e-01 -2.358760e+00 83 27 4
-3.256376e-01 -2.008431e-01 -2.358873e+00 60 1 0
-9.429816e-01 -2.382097e-01 -2.526155e+00 165 107 55
-9.429816e-01 -2.382097e-01 -2.526155e+00 165 107 55
-3.921432e-01 -1.899751e-01 -2.356039e+00 77 16 1
-3.954583e-01 -1.961149e-01 -2.400163e+00 77 16 1
-3.480816e-01 -1.903888e-01 -2.392716e+00 148 96 48
-3.269083e-01 -1.486810e-01 -2.357120e+00 61 5 0
-5.253607e-01 -1.566140e-01 -2.407253e+00 134 87 25
3.592396e-02 -1.089918e-01 -2.321596e+00 114 20 0
-3.669995e-01 -6.947015e-02 -2.343559e+00 91 36 2
-5.821701e-01 -7.775647e-02 -2.406386e+00 96 39 0
3.196269e-01 -3.467866e-02 -2.342279e+00 135 48 29
-4.123954e-01 -5.264943e-02 -2.355255e+00 136 88 21
-1.077421e+00 -8.002060e-02 -2.648267e+00 134 95 51
-6.783309e-01 -4.258952e-02 -2.449875e+00 138 91 26
-6.434691e-01 -2.171520e-02 -2.424857e+00 81 37 0
-6.966279e-02 2.322094e-02 -2.327962e+00 56 7 0
-7.387254e-01 1.074436e-02 -2.453926e+00 136 90 25
-4.015927e-01 8.297744e-02 -2.366612e+00 95 34 5
-9.244055e-01 1.001248e-01 -2.527918e+00 109 61 2
-5.599809e-02 1.570643e-01 -2.332892e+00 68 21 3
-4.631785e-01 1.704769e-01 -2.377778e+00 67 16 2
-4.643648e-01 1.682214e-01 -2.384901e+00 67 16 2
2.306389e-01 2.231647e-01 -2.347825e+00 70 8 0
2.305540e-01 2.242257e-01 -2.346957e+00 70 8 0
-1.531347e-01 2.185144e-01 -2.365708e+00 133 77 18
-3.076814e-01 2.700313e-01 -2.369763e+00 146 76 32
-2.152012e-01 2.933432e-01 -2.362106e+00 119 37 7
-1.032854e+00 2.664960e-01 -2.552398e+00 111 51 10
-5.391907e-01 2.866134e-01 -2.370085e+00 124 33 3
-5.802164e-03 3.084711e-01 -2.337646e+00 78 32 16
-4.401634e-02 3.213865e-01 -2.345656e+00 58 17 0
-7.871697e-01 3.014171e-01 -2.480161e+00 154 106 49
-2.174552e-01 3.275944e-01 -2.365710e+00 120 34 4
-1.729481e-01 3.736319e-01 -2.364683e+00 70 15 2
-8.316180e-01 4.152037e-01 -2.505392e+00 154 76 43
3.646457e-01 4.904029e-01 -2.346549e+00 94 44 0
3.600188e-01 4.887129e-01 -2.328643e+00 94 44 0
3.394120e-01 5.173094e-01 -2.327618e+00 157 105 47
-6.586231e-01 7.406619e-01 -2.531182e+00 57 56 62
7.357020e-03 1.196249e+00 -2.512953e+00 106 92 90
9.515928e-02 1.256493e+00 -2.577260e+00 109 94 92
9.491048e-02 1.251984e+00 -2.562476e+00 109 94 92
-6.764684e-01 1.316135e+00 -2.787995e+00 96 83 92
-7.483439e-01 1.336218e+00 -2.823066e+00 48 37 43
5.634581e-02 1.305994e+00 -2.619371e+00 56 41 46
5.634581e-02 1.305994e+00 -2.619371e+00 56 41 46
-8.179526e-01 1.352080e+00 -2.809668e+00 78 72 87
-8.179526e-01 1.352080e+00 -2.809668e+00 78 72 87
-1.175234e+00 1.384992e+00 -2.905476e+00 47 33 33
-1.157477e+00 1.364391e+00 -2.853481e+00 47 33 33
2.422427e-02 1.460822e+00 -2.624558e+00 34 26 39
4.802163e+00 2.079914e+00 -2.956219e+00 126 114 93
1.334152e+00 -1.917364e+00 -1.836727e+00 47 41 17
1.393930e+00 -1.971820e+00 -1.907240e+00 81 75 58
-1.013354e+00 -1.859080e+00 -2.129454e+00 71 85 47
-9.956372e-01 -1.789468e+00 -2.063549e+00 166 175 132
-1.017690e+00 -1.772588e+00 -2.045310e+00 101 97 56
-1.056400e+00 -1.812303e+00 -2.115774e+00 89 90 41
-1.065863e+00 -1.808366e+00 -2.132005e+00 151 165 98
-8.529612e-01 -1.782746e+00 -2.118592e+00 65 80 42
-9.126281e-01 -1.778418e+00 -2.118362e+00 46 97 46
-9.521968e-01 -1.771196e+00 -2.129733e+00 41 95 46
-7.437142e-01 -1.737156e+00 -2.091794e+00 103 107 56
-6.912247e-01 -1.747272e+00 -2.124260e+00 118 117 66
-1.020625e+00 -1.726022e+00 -2.150049e+00 38 73 15
-9.268509e-01 -1.649699e+00 -2.067132e+00 47 93 2
1.339723e+00 -1.447420e+00 -1.785487e+00 33 28 8
-8.201740e-01 -1.649641e+00 -2.114205e+00 176 195 146
-8.126661e-01 -1.604165e+00 -2.060606e+00 75 109 61
-5.831268e-01 -1.622372e+00 -2.098671e+00 45 83 43
-5.395061e-01 -1.626886e+00 -2.110670e+00 158 171 126
1.078169e+00 -1.617193e+00 -2.050702e+00 25 17 2
-1.155910e-01 6.086056e-02 -1.086856e-01 25 67 0
-6.133374e-01 -1.552350e+00 -2.058019e+00 176 195 153
-5.369856e-01 -1.590270e+00 -2.098874e+00 19 64 0
-6.744291e-01 -1.583435e+00 -2.114130e+00 57 93 48
-7.365345e-01 -1.554898e+00 -2.126418e+00 195 208 178
-4.190543e-01 -1.526971e+00 -2.096967e+00 43 64 14
1.010907e+00 -1.517680e+00 -2.049120e+00 36 27 10
-3.365865e-01 -1.411066e+00 -2.097504e+00 187 206 137
-3.365865e-01 -1.411066e+00 -2.097504e+00 187 206 137
1.654618e+00 -1.151178e+00 -1.728940e+00 54 52 41
-1.184559e-01 -1.368788e+00 -2.078812e+00 57 68 30
-7.679062e-02 -1.360805e+00 -2.080464e+00 11 51 0
-1.264186e-01 -1.358426e+00 -2.081552e+00 180 191 133
5.369810e-02 -1.320700e+00 -2.070710e+00 45 84 37
1.166375e+00 -1.207512e+00 -1.897886e+00 69 69 59
8.764509e-01 -1.342945e+00 -2.126378e+00 35 28 10
-1.175084e-01 -1.288226e+00 -2.074573e+00 24 106 14
-1.157039e-01 -1.262466e+00 -2.109105e+00 75 93 55
-1.269480e-01 -1.255081e+00 -2.108338e+00 189 182 146
2.661529e+00 -1.097868e+00 -1.825158e+00 45 38 22
1.988429e-01 -1.218622e+00 -2.066164e+00 50 66 23
-8.922937e-02 -1.240006e+00 -2.105255e+00 180 175 134
1.615303e-01 -1.216720e+00 -2.069729e+00 43 76 30
-8.442941e-02 8.615361e-02 -9.469009e-02 149 172 115
2.509285e-01 -1.165211e+00 -2.068083e+00 115 189 112
1.783590e-01 -1.158028e+00 -2.061723e+00 49 134 45
3.199235e-01 -1.145789e+00 -2.068504e+00 46 79 24
7.685824e-01 -1.221107e+00 -2.198300e+00 94 83 59
2.827784e-01 -1.130335e+00 -2.070776e+00 41 81 30
3.649075e-01 -1.112311e+00 -2.053258e+00 25 73 1
6.252016e-01 -1.133590e+00 -2.093597e+00 99 93 53
1.987399e-01 -1.106169e+00 -2.086355e+00 74 90 48
5.921110e-01 -1.091315e+00 -2.056600e+00 128 141 103
3.148161e-01 -1.096212e+00 -2.070932e+00 28 91 5
1.146558e+00 -1.022554e+00 -1.968359e+00 44 43 38
5.725812e-01 -1.057234e+00 -2.043426e+00 21 65 0
3.359105e-01 -1.044460e+00 -2.089327e+00 54 82 41
5.437741e-01 -1.009970e+00 -2.051868e+00 125 199 121
1.253101e+00 -9.492154e-01 -1.957755e+00 76 74 61
2.282196e+00 -8.570765e-01 -1.789715e+00 52 49 42
5.483908e-01 -9.485015e-01 -2.016863e+00 34 92 8
8.524350e-01 -9.461833e-01 -2.039475e+00 31 49 25
5.018002e-01 -9.574163e-01 -2.075734e+00 154 165 117
7.475532e-01 -8.742934e-01 -2.010728e+00 204 214 162
7.564641e-01 -8.631482e-01 -2.028984e+00 32 75 2
9.399199e-01 -8.442138e-01 -2.005542e+00 50 95 40
1.102071e+00 -8.579151e-01 -2.033483e+00 42 54 39
7.895077e-01 -8.532748e-01 -2.031593e+00 94 171 88
7.924167e-01 -8.567965e-01 -2.037405e+00 94 171 88
7.921166e-01 -8.564093e-01 -2.036659e+00 94 171 88
8.540470e-01 -8.365425e-01 -2.031824e+00 156 180 111
1.435287e+00 -7.988863e-01 -1.958210e+00 69 66 59
9.104467e-01 -8.220624e-01 -2.022659e+00 171 191 140
1.155784e+00 -8.229777e-01 -2.040269e+00 21 27 10
9.122599e-01 -8.025650e-01 -2.020523e+00 192 209 142
9.160912e-01 -8.066451e-01 -2.027184e+00 192 209 142
1.167487e+00 -7.984547e-01 -2.014890e+00 83 74 60
8.983999e-01 -8.002641e-01 -2.018888e+00 84 100 29
9.446477e-01 -8.013159e-01 -2.025134e+00 35 80 11
-5.686498e-01 -9.510706e-01 -2.341650e+00 158 104 61
8.873432e-01 -8.016852e-01 -2.035439e+00 183 209 134
7.994820e-01 -7.977697e-01 -2.039825e+00 186 202 149
1.120860e+00 -7.858874e-01 -2.017407e+00 33 64 15
1.120860e+00 -7.858874e-01 -2.017407e+00 33 64 15
8.883982e-01 -7.941290e-01 -2.046823e+00 9 52 0
6.165287e-03 -8.921463e-01 -2.316437e+00 77 3 0
-4.741196e-01 -9.173498e-01 -2.378027e+00 149 90 40
-4.990622e-01 -9.204315e-01 -2.389195e+00 141 75 33
9.455842e-02 -8.825766e-01 -2.329234e+00 125 49 38
1.110818e+00 -7.322726e-01 -2.006657e+00 49 67 10
-6.086715e-01 -9.025059e-01 -2.388818e+00 150 79 27
1.039070e+00 -7.275301e-01 -2.030285e+00 183 212 138
1.760274e-01 -8.825072e-01 -2.384433e+00 74 1 1
1.621794e+00 -6.876436e-01 -1.957769e+00 62 59 50
1.084002e+00 -7.237610e-01 -2.036464e+00 47 77 14
-4.171296e-01 -8.561349e-01 -2.402402e+00 133 70 30
-3.980966e-01 -8.406480e-01 -2.368540e+00 74 9 1
1.880982e+00 -6.813955e-01 -2.019963e+00 82 79 70
1.882415e+00 -6.815231e-01 -2.022569e+00 82 79 70
5.139961e-01 -8.583725e-01 -2.451771e+00 104 71 39
2.389453e-01 -7.983408e-01 -2.317973e+00 79 1 0
-7.067615e-01 -8.414642e-01 -2.429432e+00 86 27 0
2.153453e+00 -6.546742e-01 -2.024195e+00 73 69 33
1.686322e+00 -6.198812e-01 -1.936133e+00 69 66 57
-4.530629e-01 -8.103320e-01 -2.370430e+00 76 15 1
-1.057133e+00 -9.449652e-01 -2.699223e+00 106 55 14
-5.043144e-01 -8.070919e-01 -2.376459e+00 92 22 1
-5.065777e-01 -8.136944e-01 -2.392394e+00 92 22 1
1.688591e-01 -7.586573e-01 -2.350992e+00 76 2 3
-3.671500e-01 -7.465068e-01 -2.315313e+00 94 30 1
-4.697213e-01 -7.744491e-01 -2.386117e+00 142 86 39
1.551313e-01 -7.539126e-01 -2.354154e+00 115 32 19
1.551313e-01 -7.539126e-01 -2.354154e+00 115 32 19
1.805136e+00 -6.004971e-01 -2.005906e+00 69 66 57
-4.173061e-01 -7.410577e-01 -2.362445e+00 127 67 34
-4.166307e-01 -7.353907e-01 -2.348914e+00 127 67 34
1.394891e+00 -6.001454e-01 -2.062012e+00 75 72 54
-4.522619e-01 -7.272952e-01 -2.359185e+00 77 19 3
-4.802356e-01 -7.164855e-01 -2.373991e+00 87 19 0
-4.138600e-01 -7.042258e-01 -2.351851e+00 128 58 22
-4.685269e-01 -6.814075e-01 -2.371772e+00 76 13 1
-5.014086e-01 -6.792883e-01 -2.372267e+00 90 21 0
-4.836556e-01 -6.604267e-01 -2.347136e+00 142 83 39
-3.301662e-01 -6.250052e-01 -2.327999e+00 71 5 3
-4.719082e-01 -6.309156e-01 -2.366485e+00 87 23 2
-4.709917e-01 -6.290525e-01 -2.362311e+00 87 23 2
-5.205229e-01 -6.316076e-01 -2.391512e+00 141 70 29
1.634651e+00 -4.831345e-01 -2.025619e+00 92 87 81
-8.882725e-01 -6.756642e-01 -2.519602e+00 139 88 34
-4.741423e-01 -6.148901e-01 -2.371919e+00 83 17 1
-4.743222e-01 -6.152679e-01 -2.372149e+00 83 17 1
5.647353e-02 -5.615226e-01 -2.300230e+00 117 46 31
-3.989894e-01 -5.774346e-01 -2.339218e+00 142 86 48
-4.754222e-01 -5.827891e-01 -2.372181e+00 77 16 0
-4.938314e-01 -5.741446e-01 -2.377777e+00 143 85 40
-4.930231e-01 -5.732212e-01 -2.376009e+00 143 85 40
-3.279476e-02 -5.448246e-01 -2.325206e+00 78 4 2
-4.818784e-01 -5.662150e-01 -2.377640e+00 84 19 1
-8.921700e-01 -5.711168e-01 -2.468109e+00 102 46 0
-5.118680e-01 -5.334478e-01 -2.377124e+00 88 24 0
-3.593610e-01 -5.102044e-01 -2.335343e+00 80 18 6
1.317177e-01 -4.883992e-01 -2.307427e+00 55 1 1
-2.772219e-01 -4.999376e-01 -2.325096e+00 126 75 22
1.843167e-01 -4.867091e-01 -2.346540e+00 128 47 37
1.847288e-01 -4.891655e-01 -2.346861e+00 128 47 37
-2.940598e-03 -4.898064e-01 -2.333873e+00 125 49 38
2.991175e-02 -4.800765e-01 -2.321184e+00 125 46 34
2.967207e-02 -4.775829e-01 -2.317048e+00 125 46 34
-2.135096e-01 -4.814270e-01 -2.315514e+00 123 39 13
5.108260e-01 -4.947654e-01 -2.399053e+00 25 9 1
-3.381989e-01 -4.794212e-01 -2.331470e+00 75 14 2
6.060730e-02 -4.649687e-01 -2.319164e+00 63 4 2
-4.732580e-01 -4.778740e-01 -2.382210e+00 142 89 53
-5.389653e-01 -4.615830e-01 -2.389068e+00 93 35 4
-5.191886e-01 -4.355532e-01 -2.387501e+00 82 17 0
-5.197819e-01 -4.360696e-01 -2.391015e+00 82 17 0
-3.646888e-01 -4.220347e-01 -2.361637e+00 60 0 0
-4.491741e-01 -4.208891e-01 -2.368581e+00 86 34 1
-1.713978e-01 -3.943364e-01 -2.312242e+00 130 34 12
-4.854068e-01 -4.139336e-01 -2.367471e+00 87 27 4
-5.246611e-01 -4.169289e-01 -2.390743e+00 82 18 0
-4.244004e-01 -3.941861e-01 -2.363781e+00 64 8 0
-4.391589e-01 -3.945728e-01 -2.362514e+00 132 81 42
-4.385793e-01 -3.922890e-01 -2.353294e+00 132 81 42
-4.537571e-01 -3.935434e-01 -2.372304e+00 69 14 0
-3.694218e-01 -3.890264e-01 -2.362292e+00 73 10 0
-9.054328e-01 -4.285155e-01 -2.490886e+00 109 52 7
-1.204111e-01 -3.822378e-01 -2.407299e+00 104 20 1
-4.239329e-01 -3.733571e-01 -2.366741e+00 91 35 3
-1.735494e-01 -3.476868e-01 -2.307125e+00 107 29 3
-4.792449e-01 -3.647127e-01 -2.374002e+00 90 37 3
-4.792368e-01 -3.648988e-01 -2.374800e+00 90 37 3
-9.200513e-01 -4.075689e-01 -2.530816e+00 120 61 5
-1.985930e-01 -3.368446e-01 -2.296064e+00 111 28 2
-1.989053e-01 -3.360940e-01 -2.295844e+00 111 28 2
2.924246e-01 -3.669364e-01 -2.504870e+00 78 0 0
2.685668e-01 -3.393869e-01 -2.369904e+00 78 0 0
2.479353e-01 -3.237604e-01 -2.325209e+00 115 34 27
1.994040e-01 -3.184777e-01 -2.333779e+00 54 1 1
2.063446e-02 -3.144919e-01 -2.295359e+00 60 2 1
7.590316e-04 -3.073767e-01 -2.321332e+00 63 3 3
1.843584e+00 -2.710671e-01 -2.418109e+00 80 67 38
-9.183901e-01 -3.338869e-01 -2.507343e+00 110 52 4
-6.794068e-01 -2.962678e-01 -2.421164e+00 81 34 5
-7.282502e-01 -2.939190e-01 -2.440621e+00 149 92 40
-9.173383e-01 -2.933308e-01 -2.501752e+00 93 33 0
-9.288884e-01 -3.026967e-01 -2.539551e+00 93 33 0
7.901790e-02 -2.227949e-01 -2.314222e+00 101 14 1
-3.569901e-01 -2.421301e-01 -2.364614e+00 72 17 3
-8.302668e-01 -2.680272e-01 -2.476415e+00 87 44 8
-1.144407e-01 -2.115311e-01 -2.322099e+00 115 24 0
-1.011865e+00 -2.588514e-01 -2.587447e+00 118 48 10
-4.035999e-01 -1.845722e-01 -2.365356e+00 129 74 18
