ply
format ascii 1.0
element face 0
property list uchar int vertex_indices
element vertex 148
property float x
property float y
property float z
property uchar diffuse_red
property uchar diffuse_green
property uchar diffuse_blue
end_header
-3.235385e-01 9.424288e-01 -2.669839e+00 21 21 33
-3.235385e-01 9.424288e-01 -2.669839e+00 21 21 33
8.560560e-01 -1.495202e-01 -2.855461e+00 211 193 155
9.324451e-01 -9.713647e-01 -2.041321e+00 8 10 5
4.435542e-01 -2.708706e-01 -2.638192e+00 129 22 5
1.102928e+00 -7.407186e-01 -2.050920e+00 160 135 84
2.294492e+00 -4.608730e-01 -3.191474e+00 30 28 15
8.671264e-01 -7.550444e-01 -2.085010e+00 24 17 9
4.257921e-01 -1.053392e+00 -1.963529e+00 26 98 24
5.797811e-01 -9.903964e-01 -1.973082e+00 23 93 21
1.316336e+00 -7.333274e-01 -2.072015e+00 20 15 12
3.728137e-01 -9.642798e-01 -1.966861e+00 20 88 15
7.848712e-01 -8.524216e-01 -1.990477e+00 24 117 23
1.388701e+00 -6.846522e-01 -2.100412e+00 23 19 15
4.229245e-01 3.607288e-02 -2.593408e+00 138 21 3
-2.922039e-01 2.368529e-01 -2.308835e+00 152 87 8
1.251223e+00 -1.855007e+00 -2.161383e+00 29 23 9
9.236920e-01 -1.382034e+00 -1.714298e+00 22 16 7
8.918734e-01 -1.346664e+00 -1.879929e+00 32 27 9
1.782658e-01 -1.040389e+00 -1.960132e+00 53 113 44
7.582193e-01 -8.762389e-01 -1.977021e+00 191 202 144
6.988599e-01 -8.564828e-01 -1.988587e+00 208 220 147
6.988599e-01 -8.564828e-01 -1.988587e+00 208 220 147
7.231592e-01 -8.419786e-01 -2.008161e+00 21 93 12
8.067124e-01 -8.281689e-01 -1.995078e+00 218 218 165
7.875751e-01 -8.170590e-01 -2.020198e+00 16 89 11
4.480373e-01 9.393889e-02 -2.601805e+00 154 95 35
-7.545384e-03 3.542596e-01 -2.328456e+00 112 65 40
2.289426e+00 -1.283070e+00 -1.742063e+00 22 14 0
1.580458e+00 -9.488499e-01 -1.642265e+00 89 87 66
1.580458e+00 -9.488499e-01 -1.642265e+00 89 87 66
3.970251e-01 -9.678983e-01 -1.950775e+00 213 230 159
8.519664e-01 -8.030221e-01 -2.009544e+00 207 224 153
1.011378e+00 -7.463226e-01 -2.031757e+00 214 228 156
-2.071056e-02 -8.104009e-01 -2.475261e+00 98 11 6
-2.071056e-02 -8.104009e-01 -2.475261e+00 98 11 6
-6.582863e-01 -7.568046e-01 -2.515698e+00 107 52 12
1.037171e-01 -6.194984e-01 -2.495724e+00 78 1 3
-4.638504e-01 -5.387994e-01 -2.454336e+00 151 87 20
-4.818528e-01 -4.052758e-01 -2.438062e+00 112 58 14
2.753424e-01 -3.028339e-01 -2.539632e+00 75 5 1
-3.810038e-01 -2.583411e-01 -2.404924e+00 111 60 12
-7.425129e-01 -1.209029e-01 -2.464701e+00 102 59 8
-7.425129e-01 -1.209029e-01 -2.464701e+00 102 59 8
-8.112430e-01 -1.341856e-01 -2.502379e+00 160 113 32
-8.678655e-01 -1.158992e-01 -2.516798e+00 158 112 31
-8.678655e-01 -1.158992e-01 -2.516798e+00 158 112 31
-8.840746e-02 -7.746412e-03 -2.378273e+00 93 34 0
-8.840746e-02 -7.746412e-03 -2.378273e+00 93 34 0
-8.226764e-01 5.752200e-03 -2.469373e+00 103 62 10
-8.975995e-02 3.982031e-02 -2.372447e+00 98 37 4
-1.334673e-01 1.177953e-01 -2.352431e+00 100 45 21
-8.787643e-01 1.749191e-01 -2.471694e+00 106 60 8
-8.787643e-01 1.749191e-01 -2.471694e+00 106 60 8
1.013695e+00 -1.141166e+00 -1.526273e+00 87 85 73
-6.734189e-02 -5.352983e-01 -2.451399e+00 87 3 3
3.674280e-02 -5.355963e-01 -2.474427e+00 80 0 1
3.073939e-01 -5.521800e-01 -2.578178e+00 132 38 22
-4.205117e-02 -4.130057e-01 -2.449615e+00 78 3 4
1.628933e-01 -3.250452e-01 -2.490005e+00 74 0 2
-8.723309e-01 -1.953263e-01 -2.535882e+00 108 60 0
-3.486703e-01 -1.530062e-01 -2.392092e+00 89 34 6
-5.849047e-01 -1.483828e-01 -2.419283e+00 94 48 2
-5.849047e-01 -1.483828e-01 -2.419283e+00 94 48 2
-9.438868e-01 -1.412090e-01 -2.574190e+00 157 109 38
-8.058350e-01 1.930555e-02 -2.472494e+00 155 104 29
-9.125834e-01 2.555346e-02 -2.539262e+00 94 58 1
-8.450426e-01 2.922568e-02 -2.486212e+00 154 104 31
-1.191829e-01 2.792450e-01 -2.331775e+00 157 110 47
-1.191829e-01 2.792450e-01 -2.331775e+00 157 110 47
-8.786707e-01 4.219892e-01 -2.411086e+00 175 101 63
-8.786707e-01 4.219892e-01 -2.411086e+00 175 101 63
2.281613e+00 -1.289865e+00 -1.746210e+00 68 65 47
8.868438e-01 -1.319232e+00 -1.877453e+00 28 22 6
8.730240e-01 -1.318725e+00 -1.880745e+00 99 92 72
1.024234e+00 -1.042322e+00 -1.678374e+00 78 75 59
9.456511e-01 -1.066217e+00 -1.722556e+00 95 94 77
9.456511e-01 -1.066217e+00 -1.722556e+00 95 94 77
9.971272e-01 -1.042627e+00 -1.698873e+00 64 62 47
2.339605e+00 -1.066231e+00 -1.759045e+00 142 139 99
2.333571e+00 -1.045009e+00 -1.765838e+00 117 112 80
5.510730e-01 -9.244334e-01 -1.953935e+00 52 92 29
1.084646e+00 -7.981365e-01 -2.014107e+00 132 146 102
-7.364226e-01 -9.316774e-01 -2.540925e+00 92 38 1
6.239554e-01 -1.004301e+00 -2.887242e+00 182 159 124
-2.403488e-01 -5.376384e-01 -2.448344e+00 116 39 0
1.892751e-01 -1.290379e-01 -2.477898e+00 174 78 53
1.603545e+00 -1.350407e-01 -2.969244e+00 54 43 20
-9.140476e-01 -8.216568e-02 -2.556973e+00 102 60 1
-3.681035e-01 -5.151714e-02 -2.392098e+00 162 113 52
-8.812547e-01 2.256178e-01 -2.470231e+00 87 44 0
8.602901e-01 -1.313887e+00 -1.882805e+00 46 35 13
1.012360e+00 -1.045231e+00 -1.689676e+00 106 102 82
4.628275e-01 -9.198879e-01 -1.994808e+00 57 98 37
8.251701e-01 -8.261343e-01 -1.995370e+00 28 75 8
1.095260e+00 -7.691114e-01 -2.018549e+00 178 173 128
1.112576e+00 -7.493629e-01 -2.025546e+00 116 88 44
1.082021e+00 -7.502017e-01 -2.028673e+00 69 84 29
1.067724e+00 -7.092490e-01 -2.055855e+00 37 65 2
1.067757e+00 -7.007030e-01 -2.070363e+00 140 153 89
1.362116e+00 -6.566227e-01 -2.100785e+00 73 58 20
5.842163e-01 -6.444023e-01 -2.791849e+00 25 2 0
6.390212e-02 -5.183880e-01 -2.480404e+00 88 1 4
-9.606355e-01 -4.799610e-02 -2.576590e+00 120 72 9
-5.323499e-01 1.601830e-01 -2.362512e+00 72 17 8
-5.247872e-01 1.748235e-01 -2.358952e+00 167 109 41
1.011378e+00 -7.463226e-01 -2.031757e+00 214 228 156
6.920424e-01 -9.584555e-01 -1.970564e+00 115 132 90
-4.770701e-01 -7.941912e-01 -2.476797e+00 154 86 22
-3.486703e-01 -1.530062e-01 -2.392092e+00 89 34 6
1.042216e+00 -7.325750e-01 -2.036704e+00 44 80 1
1.911017e+00 -8.519127e-01 -1.702868e+00 85 82 73
1.316515e+00 -8.317904e-01 -1.964262e+00 58 56 44
-1.659847e-01 -5.987011e-02 -2.409033e+00 180 103 44
-4.135539e-01 -4.169790e-02 -2.388364e+00 93 35 1
8.519664e-01 -8.030221e-01 -2.009544e+00 207 224 153
-9.019947e-01 -2.753226e-01 -2.568907e+00 110 62 11
-7.820114e-01 -1.644884e-01 -2.484827e+00 94 46 3
-1.266107e-03 -5.380461e-01 -2.462055e+00 83 3 0
-8.943958e-01 3.248446e-01 -2.465133e+00 180 135 70
2.381262e+00 -9.504770e-01 -1.976330e+00 203 191 143
1.636266e+00 -1.377481e-01 -2.970903e+00 225 217 193
1.636266e+00 -1.377481e-01 -2.970903e+00 225 217 193
1.627378e-01 -1.056227e+00 -1.910821e+00 47 153 46
9.112182e-01 -8.218834e-01 -1.995329e+00 182 195 140
1.279532e-01 3.228885e-01 -2.378167e+00 94 51 30
1.279532e-01 3.228885e-01 -2.378167e+00 94 51 30
6.732984e-01 -8.588518e-01 -2.004422e+00 15 86 10
-6.036440e-02 -5.897446e-01 -2.452347e+00 87 13 7
1.645149e-01 -6.019879e-01 -2.510464e+00 70 0 0
1.833645e-01 -5.835451e-01 -2.519825e+00 138 36 14
-4.638504e-01 -5.387994e-01 -2.454336e+00 151 87 20
-2.086913e-02 2.343527e-01 -2.348370e+00 93 35 15
1.926983e-01 -7.804838e-01 -2.539500e+00 86 0 0
2.262035e-01 -5.719526e-01 -2.543516e+00 133 34 13
7.516564e-01 -8.370855e-01 -1.994916e+00 93 176 76
1.118191e+00 -9.082450e-01 -1.899813e+00 28 26 11
1.415130e+00 -7.895842e-01 -1.985696e+00 63 61 48
-2.181477e-01 -4.413056e-01 -2.455890e+00 150 37 3
-3.329013e-01 -1.776911e-01 -2.385693e+00 165 113 33
-6.036440e-02 -5.897446e-01 -2.452347e+00 87 13 7
-4.040622e-01 -8.721894e-01 -2.469656e+00 98 39 4
2.448489e-01 -8.805147e-01 -2.564784e+00 78 0 0
1.040179e+00 -7.524229e-01 -2.021795e+00 64 82 19
-5.827101e-02 4.833628e-02 -2.349383e-02 0 255 0
-5.722291e-02 4.734012e-02 -7.347291e-02 255 255 0
-5.871728e-01 8.290396e-01 -2.264665e-01 255 0 0
-5.867963e-01 8.197591e-01 -2.755962e-01 255 255 0
