ply
format ascii 1.0
element face 0
property list uchar int vertex_indices
element vertex 939
property float x
property float y
property float z
property uchar diffuse_red
property uchar diffuse_green
property uchar diffuse_blue
end_header
1.655131e-01 -4.596546e-01 -1.722509e+00 190 213 152
1.963129e-01 -4.428375e-01 -1.720299e+00 32 90 20
3.912616e-01 -3.807072e-01 -1.767603e+00 31 27 15
6.995056e-02 -5.153195e-01 -1.521284e+00 53 50 43
1.355130e-01 -4.597613e-01 -1.717769e+00 93 158 74
1.354168e-01 -5.125412e-01 -1.517443e+00 110 97 68
5.882147e-02 1.377941e-01 -1.863163e+00 44 37 43
1.209570e-01 -5.120935e-01 -1.495079e+00 127 118 90
1.209570e-01 -5.120935e-01 -1.495079e+00 127 118 90
2.244583e-01 -5.043243e-01 -1.666811e+00 33 31 17
2.318237e-01 -4.217043e-01 -1.730301e+00 172 200 128
8.603073e-02 -4.866774e-01 -1.729310e+00 63 133 50
-3.728644e-01 3.652243e-01 -2.125165e+00 47 40 39
2.092587e-01 -4.528366e-01 -1.734806e+00 166 185 129
2.066973e-01 -5.308122e-01 -1.644419e+00 33 32 16
1.897912e-01 -5.015457e-01 -1.613977e+00 37 38 25
3.558337e-01 -5.255477e-01 -1.792651e+00 84 78 57
2.381320e-01 -5.102130e-01 -1.652691e+00 34 34 22
2.507460e-01 -4.365612e-01 -1.734934e+00 34 102 22
4.817862e-01 -2.705597e-01 -2.115761e+00 88 86 67
-4.798637e-01 -3.267375e-01 -2.252532e+00 114 29 8
-8.993898e-02 -3.936279e-02 -1.842305e+00 132 22 2
2.660425e-02 -2.700109e-01 -1.800655e+00 96 86 58
3.331017e-02 3.399299e-02 -1.881831e+00 151 41 1
8.185272e-02 -2.651113e-01 -2.029391e+00 34 28 14
-3.535239e-01 -3.899599e-01 -1.974816e+00 86 33 1
-4.995256e-01 -2.273711e-01 -2.043854e+00 93 10 0
-5.262222e-01 -1.069132e-01 -2.068432e+00 88 9 0
-4.400630e-01 -1.528722e-02 -1.924906e+00 69 15 0
5.669438e-01 -4.477201e-01 -1.582588e+00 59 53 13
2.517613e-01 -1.961200e-01 -1.836154e+00 57 54 7
-5.907055e-01 -3.701381e-01 -2.171177e+00 137 77 43
2.412303e-01 -4.170568e-01 -1.779405e+00 30 35 5
-1.068504e-01 -5.916442e-01 -1.682979e+00 138 158 101
-2.366642e-01 -1.813327e-01 -1.978378e+00 142 95 19
-3.152790e-01 1.712763e-01 -1.916491e+00 22 22 30
-4.004146e-01 -8.068143e-01 -1.804625e+00 39 32 16
-8.250720e-02 -7.759026e-02 -1.786518e+00 208 190 152
3.682490e-01 -2.863178e-01 -2.005432e+00 125 115 80
3.682490e-01 -2.863178e-01 -2.005432e+00 125 115 80
3.618184e-01 -4.511134e-01 -1.845943e+00 23 30 9
-3.107553e-01 -8.180093e-01 -1.846126e+00 28 70 7
2.482176e-01 -5.061608e-01 -1.846576e+00 10 21 2
4.131695e-01 -3.239581e-01 -1.738166e+00 34 35 21
-9.285944e-02 -5.444572e-03 -1.779189e+00 154 58 7
-9.677696e-02 3.034283e-02 -1.744029e+00 205 187 151
-3.585568e-01 -7.926003e-01 -1.784647e+00 56 109 31
-2.269840e-05 -6.130316e-01 -1.783058e+00 154 176 117
5.896303e-02 -5.880151e-01 -1.784396e+00 158 178 116
1.830000e-01 -5.359212e-01 -1.786739e+00 151 166 106
-1.666394e-01 -3.123478e-01 -1.947841e+00 135 61 19
4.064336e-01 -6.458501e-01 -1.663585e+00 28 26 13
-2.726414e-02 -2.796381e-01 -1.967023e+00 117 105 73
4.501785e-01 -4.250172e-01 -1.859303e+00 40 38 23
3.495963e-01 -3.200917e-01 -1.978231e+00 56 53 36
4.307346e-01 -3.491876e-01 -1.947301e+00 92 86 59
-4.965671e-01 8.880709e-02 -1.984044e+00 151 83 45
-4.988200e-01 1.082330e-01 -2.007116e+00 154 81 46
6.572964e-01 -2.141794e-01 -1.978377e+00 34 33 15
-6.049787e-01 -2.030595e-01 -2.297360e+00 89 68 54
-5.504547e-01 -1.637619e-01 -2.484770e+00 128 93 49
3.713363e-01 -5.852203e-01 -1.767490e+00 85 78 59
3.477495e-01 -5.996848e-01 -1.703987e+00 44 41 25
4.066599e-01 -5.791834e-01 -1.737196e+00 102 93 64
4.286249e-01 -5.900004e-01 -1.744088e+00 102 93 64
2.643682e-01 -4.119764e-01 -1.957802e+00 109 100 72
2.652634e-01 -4.122402e-01 -1.958232e+00 109 100 72
4.687149e-01 -6.407365e-01 -1.629601e+00 131 119 92
2.616499e-01 -4.708063e-01 -1.788007e+00 18 91 8
4.096048e-01 -3.134449e-01 -1.978396e+00 113 104 75
4.115425e-01 -2.267678e-01 -2.069781e+00 110 99 68
-5.047514e-02 -6.552518e-01 -1.784780e+00 48 98 23
3.617970e-01 -6.275744e-01 -1.702071e+00 71 67 55
3.350261e-01 -5.857297e-01 -1.742073e+00 80 76 57
2.031045e-01 -4.976162e-01 -1.803726e+00 208 225 164
4.194082e-01 -6.293890e-01 -1.675105e+00 36 33 15
2.589252e-01 -5.171746e-01 -1.774484e+00 25 27 9
2.625711e-01 -4.519957e-01 -1.887280e+00 81 78 55
3.844689e-01 -5.234352e-01 -1.794748e+00 44 43 22
2.588569e-01 -4.672762e-01 -1.802024e+00 191 215 151
3.162264e-01 -4.382799e-01 -1.784987e+00 21 90 7
-4.237703e-01 -4.898342e-02 -1.900475e+00 102 12 1
6.157929e-01 -4.252830e-01 -1.794165e+00 78 73 57
-3.058205e-01 -4.058217e-01 -2.023450e+00 119 52 0
-5.431561e-01 -1.828873e-01 -2.155648e+00 139 50 24
3.875059e-01 -6.172455e-01 -1.727118e+00 75 73 56
2.130021e-01 -4.926566e-01 -1.815202e+00 18 40 1
-3.251276e-01 -2.082378e-01 -1.910859e+00 151 103 29
4.543646e-01 -6.550793e-01 -1.646249e+00 43 37 17
2.507808e-01 -4.951168e-01 -1.796882e+00 21 102 5
4.281787e-01 -6.316388e-01 -1.601258e+00 130 120 96
2.697926e-01 -4.600221e-01 -1.813206e+00 15 34 0
4.304184e-01 -5.809482e-01 -1.679479e+00 87 84 67
3.123347e-01 -4.261395e-01 -1.805455e+00 14 43 1
5.024869e-01 -5.345689e-01 -1.646722e+00 54 49 27
5.467682e-01 -5.179721e-01 -1.709392e+00 98 92 67
3.027876e-01 -2.290104e-01 -2.069006e+00 63 58 29
4.990566e-01 -3.018150e-01 -1.979208e+00 88 85 64
4.603865e-01 -2.435650e-01 -2.046617e+00 77 72 53
5.877146e-01 -4.132504e-01 -1.807929e+00 90 84 68
5.741803e-01 -3.742782e-01 -1.839861e+00 78 77 60
-5.025459e-01 5.701904e-02 -1.989871e+00 79 15 0
6.496134e-01 -4.005415e-01 -1.824173e+00 80 77 58
-4.829876e-01 1.149178e-01 -2.095202e+00 93 19 0
6.980386e-01 -3.796378e-01 -1.801118e+00 79 76 57
1.156330e-01 -5.735171e-01 -1.784062e+00 42 106 37
2.664099e-01 -5.527036e-01 -1.898646e+00 81 81 69
2.556423e-01 -4.582869e-01 -1.876528e+00 83 80 61
2.909736e-01 -4.878337e-01 -1.784771e+00 46 98 30
3.162506e-01 -4.574204e-01 -1.829863e+00 90 105 72
4.633042e-01 -5.512287e-01 -1.686494e+00 87 84 67
5.006812e-01 -5.408866e-01 -1.692682e+00 79 77 61
3.676642e-01 -4.389605e-01 -1.762055e+00 95 90 68
5.091628e-01 -5.201958e-01 -1.682330e+00 114 107 85
4.821171e-01 -4.540942e-01 -1.791824e+00 36 30 12
4.066449e-01 -3.169762e-01 -1.981689e+00 129 119 90
5.351116e-01 -5.218010e-01 -1.666985e+00 106 99 76
4.513960e-01 -4.046820e-01 -1.830905e+00 39 24 0
4.664277e-01 -3.677237e-01 -1.909842e+00 90 87 69
5.126334e-01 -4.907302e-01 -1.696852e+00 98 95 74
4.808381e-01 -3.420131e-01 -1.888424e+00 120 110 83
4.808381e-01 -3.420131e-01 -1.888424e+00 120 110 83
5.626869e-01 -4.031999e-01 -1.810234e+00 107 99 80
5.234272e-01 -3.373936e-01 -1.898342e+00 67 57 30
5.145938e-01 -3.777623e-01 -1.807197e+00 89 87 65
4.685740e-01 -2.551883e-01 -2.000074e+00 95 89 67
5.877227e-01 -7.731449e-01 -1.604537e+00 79 70 17
2.426522e-01 -4.907193e-01 -1.784270e+00 87 164 68
2.572717e-01 -4.564102e-01 -1.763369e+00 43 101 25
3.362638e-01 -2.437211e-01 -2.084674e+00 98 91 65
5.172688e-01 -3.501769e-01 -1.891894e+00 111 104 77
-3.073815e-01 -1.158891e-01 -1.836502e+00 96 42 0
-3.705965e-01 -1.935380e-01 -1.930572e+00 143 96 24
-3.705965e-01 -1.935380e-01 -1.930572e+00 143 96 24
-3.423952e-01 -1.643003e-01 -1.894079e+00 91 48 3
-3.316003e-01 -1.677155e-01 -1.889276e+00 95 51 4
-3.316003e-01 -1.677155e-01 -1.889276e+00 95 51 4
-3.781914e-01 -9.784915e-02 -1.879686e+00 135 86 20
-3.281410e-01 -1.108711e-01 -1.844259e+00 92 45 0
-3.862687e-01 -6.983498e-02 -1.864008e+00 79 29 0
-3.850419e-01 -6.976135e-02 -1.865906e+00 79 29 0
-4.530946e-01 -1.569271e-02 -1.914442e+00 71 14 0
-3.659031e-01 -4.659223e-01 -2.081959e+00 92 32 0
-3.654391e-01 -4.596414e-01 -2.078859e+00 92 32 0
-3.342216e-01 -4.741722e-01 -2.063708e+00 96 33 0
-3.342076e-01 -4.731546e-01 -2.063442e+00 96 33 0
-4.349918e-01 -4.106743e-01 -2.080548e+00 136 71 19
-3.546255e-01 -4.509098e-01 -2.070066e+00 99 37 1
-3.904563e-01 -4.281958e-01 -2.067089e+00 139 73 20
-3.904563e-01 -4.281958e-01 -2.067089e+00 139 73 20
-3.979485e-01 -4.170040e-01 -2.060495e+00 92 32 1
-3.675010e-01 -4.274138e-01 -2.056351e+00 96 32 0
-4.108673e-01 -3.750402e-01 -2.049160e+00 90 35 1
-3.064180e-01 -4.064346e-01 -2.022693e+00 101 36 0
-3.409928e-01 -1.882532e-01 -1.907857e+00 141 87 27
-3.540326e-01 -1.621210e-01 -1.894786e+00 88 46 4
-3.160126e-01 -8.420002e-02 -1.812151e+00 128 42 10
-4.216424e-01 -3.167019e-01 -2.029333e+00 99 36 0
-6.541784e-01 4.188630e-01 -2.200750e+00 194 176 140
7.273328e-01 -5.334282e-01 -1.672421e+00 51 47 34
5.904266e-01 -6.031631e-01 -1.583944e+00 52 48 23
-2.335133e-01 4.298635e-02 -1.824391e+00 72 5 1
-3.309937e-01 -8.192607e-01 -1.798814e+00 56 109 31
4.354726e-01 -7.500975e-01 -1.590334e+00 12 6 0
-4.621407e-01 -4.135392e-01 -2.093325e+00 156 88 29
3.602761e-01 -5.585616e-01 -1.775034e+00 36 34 20
5.715616e-01 -6.224632e-01 -1.609439e+00 89 82 63
6.317558e-01 -5.925913e-01 -1.601730e+00 88 83 63
4.700251e-01 -7.302065e-01 -1.593499e+00 81 76 56
4.796943e-01 -6.730806e-01 -1.654437e+00 73 72 54
-3.921136e-01 -1.939297e-01 -1.938667e+00 87 40 2
-3.921136e-01 -1.939297e-01 -1.938667e+00 87 40 2
2.471282e-02 -7.906431e-01 -1.775500e+00 195 177 141
-2.337323e-01 -2.482606e-01 -1.929453e+00 165 111 23
7.149750e-01 -2.784583e-01 -1.940900e+00 49 45 33
6.121015e-01 -6.360263e-01 -1.817974e+00 65 60 38
-7.877201e-02 -6.544298e-01 -1.846942e+00 172 154 116
-4.339056e-01 -2.113727e-01 -1.956582e+00 164 99 31
3.230238e-01 -5.733760e-01 -1.692620e+00 102 91 63
4.634559e-01 -6.397980e-01 -1.661979e+00 110 97 64
3.846951e-01 -4.854921e-01 -1.785024e+00 38 47 28
-1.258728e-01 1.361814e-02 -1.809431e+00 208 120 75
-1.464747e-01 2.612209e-02 -1.786044e+00 74 14 7
-4.343649e-01 -1.906134e-01 -1.943467e+00 160 99 37
-4.180527e-01 -1.434199e-01 -1.919882e+00 160 104 37
-2.397312e-01 5.228767e-01 -2.060857e+00 36 27 39
-4.583683e-01 -3.795992e-01 -2.068904e+00 160 93 38
-5.761607e-01 -2.394753e-01 -2.308857e+00 60 35 31
-4.638354e-01 -3.597734e-01 -2.050460e+00 163 95 35
-7.246411e-02 -6.325028e-01 -1.779368e+00 170 187 124
-7.246411e-02 -6.325028e-01 -1.779368e+00 170 187 124
-4.484632e-01 -3.129694e-01 -2.025027e+00 165 97 40
-2.990565e-01 -2.659577e-01 -1.941568e+00 108 57 11
-2.990565e-01 -2.659577e-01 -1.941568e+00 108 57 11
2.427014e-01 -5.034081e-01 -1.785651e+00 163 183 118
4.457764e-01 -5.457882e-01 -1.793103e+00 41 39 24
2.709911e-01 -4.656667e-01 -1.776609e+00 160 174 117
4.283233e-01 -3.785133e-01 -1.809648e+00 64 56 25
-4.036829e-01 3.522461e-01 -2.117654e+00 86 19 0
-1.065096e-01 -6.795877e-01 -1.785208e+00 68 119 34
-4.427916e-01 -3.264168e-01 -2.020981e+00 106 48 3
4.688283e-01 -9.166444e-01 -1.655118e+00 197 179 124
1.410158e-01 -5.328690e-01 -1.791398e+00 23 100 16
-4.067226e-01 -2.079886e-01 -1.950249e+00 108 56 5
2.153651e-01 -5.021864e-01 -1.792138e+00 26 100 14
-3.446675e-01 -2.164691e-01 -1.897007e+00 108 52 0
4.953281e-01 -6.797827e-01 -1.625453e+00 108 98 71
4.676528e-01 -5.452174e-01 -1.756562e+00 79 80 64
-3.582011e-01 -7.774334e-01 -1.822937e+00 120 127 77
-1.781954e-01 -6.866779e-01 -1.793026e+00 67 123 39
-4.685597e-01 -4.234053e-01 -2.080247e+00 113 52 1
-4.384446e-01 -4.358024e-01 -2.087088e+00 96 38 0
-4.382906e-01 -4.258165e-01 -2.092897e+00 149 88 24
-4.382906e-01 -4.258165e-01 -2.092897e+00 149 88 24
-4.477433e-01 -4.044445e-01 -2.067934e+00 146 85 20
-4.537433e-01 -3.921351e-01 -2.063976e+00 101 48 1
-4.537433e-01 -3.921351e-01 -2.063976e+00 101 48 1
-4.313817e-01 -4.020310e-01 -2.062242e+00 106 47 2
-4.313817e-01 -4.020310e-01 -2.062242e+00 106 47 2
-3.775796e-01 -3.871171e-01 -2.019248e+00 99 35 0
-3.775796e-01 -3.871171e-01 -2.019248e+00 99 35 0
-4.483828e-01 -3.416868e-01 -2.030137e+00 99 34 0
-3.864646e-01 -3.497385e-01 -1.988161e+00 96 26 0
-4.756921e-01 -2.816385e-01 -2.038187e+00 96 2 0
-4.564710e-01 -2.557560e-01 -2.032312e+00 101 9 0
-4.869215e-01 -2.250102e-01 -2.028420e+00 102 9 0
-4.663588e-01 -2.393217e-01 -2.013381e+00 96 3 0
-4.859967e-01 -2.107098e-01 -2.019098e+00 95 8 0
-4.677343e-01 -2.229796e-01 -2.005848e+00 95 5 3
-4.865380e-01 -1.911758e-01 -2.020482e+00 98 3 0
-9.828700e-01 -1.240366e-01 -1.551616e+00 145 52 18
-4.537592e-01 -1.849187e-01 -1.979060e+00 98 9 0
1.796655e-01 -5.302110e-01 -1.801714e+00 27 96 4
3.252061e-01 -5.572034e-01 -1.793495e+00 75 73 55
-3.171828e-01 -2.049165e-01 -1.895496e+00 110 65 1
5.864242e-01 -6.684354e-01 -1.598164e+00 96 91 69
6.453726e-01 -5.285312e-01 -1.739669e+00 97 91 66
7.120407e-01 -6.118945e-01 -1.612542e+00 87 82 62
7.037974e-01 -5.727134e-01 -1.677968e+00 109 101 81
5.090489e-01 -3.557258e-01 -1.921344e+00 38 35 18
-3.049131e-01 -1.157101e-01 -1.837735e+00 108 57 2
5.877757e-01 -3.860246e-01 -1.837482e+00 44 38 15
5.921581e-01 -3.369509e-01 -1.911913e+00 109 103 78
8.669047e-01 -4.260823e-01 -1.797470e+00 98 96 75
-4.043325e-01 -4.468595e-01 -2.034136e+00 105 47 1
-4.043325e-01 -4.468595e-01 -2.034136e+00 105 47 1
-3.886448e-01 -4.187037e-01 -2.039472e+00 103 35 0
-4.662877e-01 -2.988460e-01 -2.058503e+00 99 5 0
-4.713299e-01 -2.577661e-01 -2.035529e+00 147 48 22
-4.699808e-01 -2.193719e-01 -2.041288e+00 148 51 23
-2.464121e-01 -3.226920e-01 -1.945911e+00 107 46 0
1.174006e-01 -5.426893e-01 -1.824217e+00 85 97 59
3.176974e-01 -6.240067e-01 -1.738789e+00 60 60 50
3.174486e-01 -6.237170e-01 -1.738742e+00 60 60 50
3.973370e-01 -6.817956e-01 -1.571851e+00 95 89 58
2.569502e-01 -4.890392e-01 -1.830924e+00 80 95 54
2.138521e-01 -4.756589e-01 -1.806191e+00 26 79 20
4.298232e-01 -4.344887e-01 -1.844305e+00 83 97 60
-7.881701e-02 1.262778e-01 -1.710682e+00 118 105 97
-5.675515e-01 -3.970699e-01 -2.254334e+00 90 14 2
-4.631955e-01 -4.515418e-01 -2.086483e+00 172 100 51
-1.407766e-01 -6.887624e-01 -1.787760e+00 49 117 20
-3.641916e-01 -3.811625e-01 -1.980419e+00 165 93 33
2.677087e-02 -6.135806e-01 -1.789116e+00 44 119 24
3.537163e-01 -2.487575e-01 -1.854000e+00 35 33 21
-3.639995e-01 -7.469753e-02 -1.874681e+00 135 82 28
-6.589914e-02 1.316789e-01 -1.846273e+00 21 21 31
-2.290483e-01 -2.452314e-01 -1.931759e+00 163 106 16
2.209884e-01 -7.075287e-01 -1.838447e+00 21 21 8
3.087635e-01 -4.596741e-01 -1.866209e+00 97 87 60
1.945107e-01 -4.221380e-01 -1.854364e+00 75 67 40
1.945107e-01 -4.221380e-01 -1.854364e+00 75 67 40
-4.899798e-02 -8.101837e-01 -1.849096e+00 208 193 148
-1.121742e-01 -5.715882e-01 -2.168159e+00 162 66 23
-1.763722e-01 -1.029653e+00 -1.934228e+00 196 183 130
-5.791408e-01 -3.859084e-01 -2.210279e+00 70 27 7
-5.850063e-01 -1.814347e-01 -2.328189e+00 82 51 39
7.003154e-02 -6.250928e-01 -1.821376e+00 29 114 21
-1.023560e-01 -4.359296e-01 -2.071810e+00 146 76 32
4.403135e-01 -6.631116e-01 -1.601045e+00 128 118 88
-1.350797e-01 1.042467e-02 -1.806539e+00 215 134 90
-4.710070e-01 -1.872951e-01 -2.021426e+00 146 49 18
-4.829600e-01 -1.754383e-01 -2.035106e+00 142 45 18
-4.824951e-01 -1.746781e-01 -2.035075e+00 142 45 18
-5.099876e-01 -9.838736e-02 -2.057083e+00 96 9 4
-3.725590e-01 -1.942735e-01 -1.929032e+00 152 103 27
-3.732145e-01 -1.935030e-01 -1.928288e+00 152 103 27
-3.562943e-01 -1.999212e-01 -1.916480e+00 148 101 24
3.633475e-01 -5.147093e-01 -1.806405e+00 38 72 21
-5.009622e-01 9.502339e-02 -2.011482e+00 98 22 0
-5.724157e-01 -3.331428e-01 -2.271218e+00 105 12 0
5.451448e-02 -6.782153e-01 -1.858343e+00 61 144 46
-3.288881e-01 -3.966210e-01 -2.003320e+00 119 52 0
1.274609e-01 -6.946426e-01 -1.835232e+00 101 110 58
-5.450158e-01 -1.998119e-01 -2.163360e+00 96 6 0
4.642571e-01 -9.144707e-01 -1.670381e+00 89 82 62
4.760847e-01 -9.033702e-01 -1.633154e+00 211 195 137
-4.911040e-01 -2.341324e-01 -2.076875e+00 94 12 0
-5.156358e-01 -1.926476e-01 -2.101977e+00 105 14 0
-5.012661e-01 -1.724355e-01 -2.059032e+00 135 45 19
-4.482497e-01 -1.953950e-01 -1.995272e+00 93 4 0
-5.096734e-01 -1.146733e-01 -2.062643e+00 80 7 0
-5.096734e-01 -1.146733e-01 -2.062643e+00 80 7 0
-4.644610e-01 -1.524065e-01 -1.996547e+00 90 11 3
-5.004850e-01 -7.242174e-02 -2.030468e+00 86 8 0
-5.077304e-01 -6.261647e-02 -2.043189e+00 103 19 4
-4.741278e-01 -3.225853e-02 -1.960316e+00 99 9 2
-3.737716e-01 -9.489061e-02 -1.871346e+00 99 52 1
-4.808672e-01 8.037413e-03 -1.962226e+00 86 10 1
-4.410656e-01 -2.335736e-02 -1.905898e+00 75 7 0
-4.243812e-01 -3.625317e-02 -1.890593e+00 79 1 0
-4.648342e-01 5.051471e-04 -1.929846e+00 74 1 0
-4.974879e-01 4.589745e-02 -1.993491e+00 134 49 22
-4.988779e-01 4.609701e-02 -1.991139e+00 134 49 22
-4.995234e-01 5.584002e-02 -1.991655e+00 79 15 0
-4.946810e-01 5.974997e-02 -1.986659e+00 132 48 22
-5.059193e-01 1.353535e-01 -2.051189e+00 104 23 3
-2.741838e-01 -8.866250e-01 -1.906515e+00 82 87 36
-5.503163e-01 -1.774161e-01 -2.180982e+00 132 54 23
-5.243640e-01 -1.534250e-01 -2.106612e+00 140 50 24
-1.984348e-01 -1.862791e-01 -2.475148e+00 140 46 23
-3.767056e-01 -2.081375e-01 -1.939984e+00 151 97 27
-5.246034e-01 9.059993e-03 -2.107743e+00 132 56 21
-5.187606e-01 -1.241984e-02 -2.060791e+00 139 55 28
-4.939502e-01 -3.794178e-03 -1.994434e+00 102 10 3
-4.893204e-01 -8.113362e-03 -1.984307e+00 109 15 3
-4.156245e-01 -2.242482e-01 -1.974664e+00 113 52 2
4.175358e-01 -5.929677e-01 -1.724511e+00 133 120 85
6.310750e-01 -9.606414e-01 -1.653210e+00 198 179 122
3.409789e-01 -5.380709e-01 -1.805292e+00 26 29 17
-7.599460e-01 3.448421e-01 -2.194956e+00 198 180 142
1.499935e-02 -5.626731e-02 -1.748933e+00 204 186 149
1.499935e-02 -5.626731e-02 -1.748933e+00 204 186 149
-3.991248e-01 2.468874e-01 -2.192693e+00 147 60 16
3.570871e-01 -6.254610e-01 -1.773773e+00 12 13 7
-2.770564e-01 1.958708e-01 -1.933525e+00 19 19 28
-2.785272e-01 3.412206e-01 -2.045787e+00 25 24 30
-1.187677e-01 -7.424943e-01 -1.813147e+00 45 136 31
-1.369270e-01 -6.849363e-01 -1.791931e+00 42 141 33
2.777062e-01 -4.230479e-01 -1.815781e+00 22 32 10
3.094064e-01 -5.816814e-01 -1.665163e+00 107 96 70
3.265377e-01 -4.747185e-01 -1.770593e+00 40 44 27
7.604519e-01 -5.047755e-01 -1.580191e+00 204 190 144
1.270878e-01 -5.778264e-01 -1.778205e+00 18 34 10
3.226382e-01 -5.820354e-01 -1.744481e+00 87 79 60
2.840958e-01 -5.554524e-01 -1.761171e+00 83 78 57
1.790676e-01 -4.052237e-01 -1.888916e+00 98 90 67
-3.138318e-01 -8.797376e-01 -1.822346e+00 69 56 5
3.547895e-01 -6.344282e-01 -1.624261e+00 97 91 67
2.771775e-01 -5.235300e-01 -1.780101e+00 35 36 17
3.013052e-01 -4.986095e-01 -1.778014e+00 46 58 25
4.042849e-01 -4.488423e-01 -1.777170e+00 44 45 23
3.789361e-01 -4.244212e-01 -1.795529e+00 30 93 5
3.426681e-01 -4.217716e-01 -1.786692e+00 30 93 5
4.964798e-01 -4.011319e-01 -1.836099e+00 37 29 5
4.457698e-01 -3.880168e-01 -1.758536e+00 86 81 59
5.119645e-01 -3.976947e-01 -1.739410e+00 108 103 74
-3.899557e-01 -3.465805e-01 -2.008693e+00 99 37 0
1.868727e-01 -5.270863e-01 -1.871453e+00 64 64 52
-3.365736e-01 -1.949782e-01 -1.922085e+00 103 59 2
-3.365736e-01 -1.949782e-01 -1.922085e+00 103 59 2
-3.375859e-01 -1.639946e-01 -1.902419e+00 103 62 1
3.460174e-01 -4.378830e-01 -1.792010e+00 30 95 13
3.344042e-01 -3.391004e-01 -1.869122e+00 90 85 66
-3.290630e-01 -1.010582e-01 -1.874616e+00 94 48 0
-1.510559e-01 -6.789605e-01 -1.809667e+00 40 99 22
-6.183415e-01 -2.197252e-01 -2.266917e+00 139 119 111
-6.183415e-01 -2.197252e-01 -2.266917e+00 139 119 111
3.686727e-01 -6.316003e-01 -1.775133e+00 13 12 7
-3.369461e-01 -8.605788e-01 -1.839634e+00 48 40 17
-4.454549e-01 3.690240e-01 -2.091924e+00 198 180 142
-3.007992e-02 -6.971292e-01 -1.881211e+00 173 158 119
8.695315e-01 -3.717539e-01 -1.839353e+00 45 42 30
-1.305546e-01 7.164166e-03 -1.732662e+00 198 180 142
-5.562341e-01 -1.331838e-01 -2.453233e+00 116 72 33
3.953949e-01 -4.746962e-01 -1.771553e+00 42 44 30
-1.714753e-01 9.436687e-02 -1.702324e+00 31 28 38
-1.120566e-01 -6.638614e-01 -1.841279e+00 185 170 135
-5.724916e-01 -1.718596e-01 -2.336866e+00 54 29 25
-6.885122e-02 -6.320045e-01 -1.836147e+00 119 106 75
1.286652e-01 -5.928251e-01 -1.779004e+00 23 27 14
3.014874e-01 -6.366958e-01 -1.585713e+00 106 97 66
5.600809e-01 -4.264163e-01 -1.789370e+00 43 41 28
2.944843e-01 -8.087624e-01 -1.613309e+00 213 196 148
-4.075378e-01 3.729192e-01 -2.108148e+00 200 188 142
2.342379e-01 -7.482007e-01 -1.593200e+00 214 197 145
3.700153e-01 -6.494166e-01 -1.606771e+00 110 100 72
3.950574e-01 -5.503404e-01 -1.775276e+00 113 103 75
3.950574e-01 -5.503404e-01 -1.775276e+00 113 103 75
-4.076215e-01 -3.472636e-01 -2.059626e+00 103 39 0
2.613708e-01 -5.024555e-01 -1.822280e+00 11 39 1
3.579645e-01 -5.924785e-01 -1.708304e+00 104 98 70
3.259921e-01 -4.781184e-01 -1.810176e+00 183 207 143
6.516513e-01 -5.250390e-01 -1.722859e+00 95 89 65
-3.520668e-01 -1.085035e-01 -1.870178e+00 144 95 27
-3.544211e-01 -8.345093e-02 -1.852026e+00 97 39 1
-3.522658e-01 -4.879252e-01 -2.141185e+00 175 106 58
-3.202718e-01 -4.524669e-01 -2.078337e+00 114 46 0
-3.100777e-01 -4.583079e-01 -2.085131e+00 114 46 0
-5.313340e-02 -6.244652e-01 -1.836636e+00 106 93 67
-3.244497e-01 -3.605758e-01 -2.042729e+00 100 36 0
-4.464822e-01 -2.826941e-01 -2.059370e+00 114 17 3
-4.068371e-01 -2.059953e-01 -1.950964e+00 106 57 0
-3.737501e-01 -1.956887e-01 -1.951434e+00 106 50 1
2.766301e-01 -4.994653e-01 -1.797172e+00 25 100 9
3.935941e-01 -5.671242e-01 -1.750939e+00 107 101 76
3.935941e-01 -5.671242e-01 -1.750939e+00 107 101 76
3.009038e-01 -4.910319e-01 -1.786481e+00 137 180 107
5.112186e-01 -4.511263e-01 -1.790364e+00 61 48 27
7.197139e-01 -3.874984e-01 -1.954851e+00 89 84 64
-4.018580e-01 -8.573596e-02 -1.876426e+00 104 55 1
-6.025671e-02 -6.167850e-01 -1.814799e+00 97 117 64
-1.776756e-01 -7.033354e-01 -2.058437e+00 208 188 151
3.141232e-02 -1.112048e-01 -1.720309e+00 195 177 139
3.141232e-02 -1.112048e-01 -1.720309e+00 195 177 139
-2.963690e-01 -4.976569e-02 -2.708367e+00 194 173 132
-6.814866e-01 -5.732919e-01 -1.729380e+00 49 138 35
-4.038729e-01 -6.526285e-01 -1.765621e+00 40 126 27
-5.495762e-01 -6.757305e-01 -1.792378e+00 152 146 104
-2.322915e-01 -6.235821e-01 -1.804559e+00 12 39 2
-1.495078e-01 -6.125532e-01 -1.810194e+00 11 41 1
-7.519379e-02 2.964064e-01 -1.864027e+00 18 19 39
-7.941961e-02 2.974171e-01 -1.861712e+00 18 19 39
-1.749845e-01 -6.039127e-01 -1.790070e+00 186 207 148
-1.550198e-01 1.126484e-02 -1.745201e+00 197 178 137
-4.272913e-01 -3.556658e-01 -2.308099e+00 103 6 0
-4.272913e-01 -3.556658e-01 -2.308099e+00 103 6 0
-2.164845e-01 -6.270038e-01 -1.772284e+00 163 195 124
-4.555301e-01 -2.926567e-01 -2.066075e+00 105 12 2
-4.682492e-01 -1.726857e-01 -2.281686e+00 140 47 19
-4.303971e-01 -2.603551e-01 -2.136253e+00 144 50 20
-5.185154e-01 -1.885268e-01 -2.155138e+00 140 47 15
-4.572691e-01 -2.332404e-01 -2.023408e+00 110 15 11
-4.971175e-01 -1.085052e-01 -2.156983e+00 145 46 20
-4.971175e-01 -1.085052e-01 -2.156983e+00 145 46 20
-4.776788e-01 -1.851247e-01 -2.030384e+00 101 11 4
-4.682594e-01 -1.867378e-01 -2.035143e+00 101 11 4
-4.648852e-01 -1.765695e-01 -2.042764e+00 145 46 14
-4.645965e-01 -1.562769e-01 -2.079487e+00 145 46 14
-4.645965e-01 -1.562769e-01 -2.079487e+00 145 46 14
-4.719868e-01 -1.171233e-01 -2.081082e+00 85 18 8
-5.082325e-01 -1.009230e-01 -2.082222e+00 93 13 4
-5.177047e-01 -9.968570e-02 -2.076847e+00 93 13 4
-4.280386e-01 -2.000868e-01 -1.949649e+00 114 64 9
-5.015377e-01 -9.004168e-02 -2.091206e+00 140 40 14
-5.015377e-01 -9.004168e-02 -2.091206e+00 140 40 14
-4.630175e-01 -1.614845e-01 -1.977727e+00 95 12 5
-4.585159e-01 -1.628703e-01 -1.979945e+00 95 12 5
2.726483e-01 -5.126054e-01 -1.811435e+00 182 203 145
-5.013349e-01 -1.884820e-02 -2.193897e+00 143 54 17
3.544390e-01 -6.418582e-01 -1.621955e+00 99 89 62
-5.008829e-01 -8.589878e-02 -2.068910e+00 142 43 11
-5.008829e-01 -8.589878e-02 -2.068910e+00 142 43 11
-4.511547e-01 -1.521528e-01 -1.965767e+00 103 12 6
4.803432e-01 -4.464513e-01 -1.994805e+00 102 95 68
-3.439019e-01 -2.111328e-01 -1.918620e+00 104 55 0
-5.297424e-01 -2.157094e-02 -2.113470e+00 92 12 2
4.296175e-01 -4.911406e-01 -1.834180e+00 13 44 2
-4.867896e-01 -8.906818e-02 -2.013133e+00 84 14 4
4.375295e-01 -5.003274e-01 -1.799541e+00 155 180 115
-3.355074e-01 -1.980306e-01 -1.900052e+00 112 71 5
5.936328e-01 -5.689443e-01 -1.755020e+00 77 74 55
-4.147413e-01 -1.608095e-01 -1.911901e+00 127 72 12
5.591907e-01 -4.458104e-01 -1.867107e+00 29 28 8
-4.178486e-01 -1.318634e-01 -1.891081e+00 113 56 3
-5.125727e-01 -9.919482e-03 -2.001960e+00 78 8 2
-4.424614e-01 -9.755046e-02 -1.874824e+00 99 44 4
-3.879926e-01 -1.118877e-01 -1.868877e+00 101 50 7
-5.387484e-01 7.401833e-02 -2.086492e+00 91 17 11
-3.640477e-01 -1.073053e-01 -1.867149e+00 148 100 28
-5.585462e-01 4.940903e-02 -2.031667e+00 89 11 1
-5.430138e-01 9.983195e-02 -2.109560e+00 90 19 2
-5.430138e-01 9.983195e-02 -2.109560e+00 90 19 2
-5.499723e-01 1.506318e-02 -1.961805e+00 127 41 13
-5.203774e-01 6.463653e-03 -1.948693e+00 73 8 2
-5.203774e-01 6.463653e-03 -1.948693e+00 73 8 2
-5.259701e-01 1.115277e-01 -2.064435e+00 63 14 2
-5.259701e-01 1.115277e-01 -2.064435e+00 63 14 2
-4.340987e-01 -3.989669e-02 -1.824658e+00 155 81 47
-2.618292e-01 6.945875e-03 -1.746336e+00 158 97 51
-4.509546e-01 3.515567e-01 -2.081024e+00 196 179 132
-2.285560e-01 1.090535e-01 -1.681919e+00 40 24 8
-3.614147e-01 -6.390718e-01 -1.778497e+00 43 128 37
-3.948518e-01 -4.176327e-01 -2.273021e+00 114 18 0
-4.045756e-01 -3.359749e-01 -2.451951e+00 101 11 0
-3.585386e-01 -6.291172e-01 -1.786016e+00 26 79 4
-3.410570e-01 -4.913296e-01 -2.108344e+00 177 108 57
-3.782666e-01 -4.457361e-01 -2.141315e+00 104 43 0
-3.924335e-01 -4.349323e-01 -2.103544e+00 152 87 23
-3.539108e-01 -4.258213e-01 -2.123799e+00 148 85 24
-4.252285e-01 -4.018891e-01 -2.090355e+00 148 85 24
-3.577894e-01 -4.125141e-01 -2.121834e+00 99 38 0
-4.068216e-01 -4.007171e-01 -2.078704e+00 104 43 0
-4.013646e-01 -4.042605e-01 -2.064281e+00 102 40 2
-3.250943e-01 -4.296962e-01 -2.097733e+00 102 40 2
-3.507044e-01 -4.076194e-01 -2.111025e+00 148 85 22
-5.110578e-01 -1.471448e-01 -2.474185e+00 88 37 4
-1.854709e-01 -6.145431e-01 -1.804094e+00 85 110 51
-4.535539e-01 -2.407659e-01 -2.299329e+00 106 11 0
-3.597063e-01 -3.811073e-01 -2.071899e+00 97 34 2
-4.680418e-01 -1.581455e-01 -2.313019e+00 93 18 1
-4.680418e-01 -1.581455e-01 -2.313019e+00 93 18 1
-3.956500e-01 -3.254933e-01 -2.037115e+00 150 88 21
-9.719550e-02 -5.849148e-01 -1.782971e+00 19 83 4
-3.320455e-01 -3.582863e-01 -2.019391e+00 96 27 0
-4.654317e-01 -2.506992e-01 -2.107261e+00 96 9 1
-3.851168e-01 -3.152726e-01 -2.046346e+00 90 28 1
-4.614371e-01 -2.754240e-01 -2.052395e+00 100 10 1
-4.900048e-02 -6.049406e-01 -1.770239e+00 17 23 3
-4.722929e-01 -1.948463e-01 -2.194519e+00 84 2 0
-4.246122e-01 -2.755919e-01 -2.074909e+00 152 55 24
-4.752943e-01 -2.092527e-01 -2.153164e+00 136 46 19
-5.186469e-01 -2.017089e-01 -2.129006e+00 136 46 19
-4.707545e-01 -1.316959e-01 -2.307885e+00 95 12 1
-4.939181e-01 -1.793542e-01 -2.183323e+00 141 55 26
-4.670956e-01 -1.636997e-01 -2.227348e+00 136 48 17
-4.695689e-01 -1.630766e-01 -2.225714e+00 136 48 17
-3.826411e-01 -2.986592e-01 -2.035635e+00 94 29 0
-4.481908e-01 -2.202821e-01 -2.120090e+00 145 51 21
-4.702194e-01 -1.091327e-01 -2.314469e+00 142 54 23
-4.567112e-01 -2.036382e-01 -2.140343e+00 145 47 19
-4.567112e-01 -2.036382e-01 -2.140343e+00 145 47 19
-4.683220e-01 -1.312999e-01 -2.266103e+00 141 51 24
-4.683220e-01 -1.312999e-01 -2.266103e+00 141 51 24
-4.544032e-01 -1.644086e-01 -2.203657e+00 137 50 27
-4.544032e-01 -1.644086e-01 -2.203657e+00 137 50 27
-5.311508e-01 -1.441131e-01 -2.171673e+00 140 48 25
-6.593306e-03 -5.710418e-01 -1.787182e+00 25 84 5
-4.786398e-01 -2.024719e-01 -2.090465e+00 140 49 23
-4.729497e-01 -1.252395e-01 -2.239186e+00 132 48 23
-4.729497e-01 -1.252395e-01 -2.239186e+00 132 48 23
-4.766586e-01 -1.405929e-01 -2.202240e+00 89 17 3
-4.766586e-01 -1.405929e-01 -2.202240e+00 89 17 3
-5.004831e-01 -9.584496e-02 -2.265490e+00 103 13 7
-5.017639e-01 -9.637180e-02 -2.264610e+00 103 13 7
-4.651388e-01 -1.568758e-01 -2.172006e+00 136 49 21
-4.925933e-01 -1.072609e-01 -2.244384e+00 138 52 24
-4.424070e-01 -2.002636e-01 -2.084372e+00 141 47 20
-4.424070e-01 -2.002636e-01 -2.084372e+00 141 47 20
-4.386291e-01 -2.148326e-01 -2.034574e+00 152 54 27
-4.771778e-01 -1.392708e-01 -2.140201e+00 88 3 0
-4.748862e-01 -1.590793e-01 -2.095108e+00 140 47 16
-4.748862e-01 -1.590793e-01 -2.095108e+00 140 47 16
-4.804691e-01 -1.463036e-01 -2.096696e+00 96 18 1
4.506684e-01 -5.975665e-01 -1.930226e+00 62 62 50
-4.839110e-01 -1.405135e-01 -2.086595e+00 141 49 22
-4.797827e-01 -1.485151e-01 -2.058291e+00 89 2 0
-4.812919e-01 -1.481536e-01 -2.057536e+00 89 2 0
-4.879630e-01 -1.311841e-01 -2.082272e+00 91 15 0
-4.879630e-01 -1.311841e-01 -2.082272e+00 91 15 0
-5.112110e-01 -4.783835e-02 -2.212641e+00 137 50 22
-5.112110e-01 -4.783835e-02 -2.212641e+00 137 50 22
-4.450246e-01 -1.848257e-01 -2.002075e+00 146 52 22
-4.872662e-01 -1.213461e-01 -2.061976e+00 76 0 0
-5.024963e-01 -3.298739e-02 -2.193260e+00 98 9 1
-4.987516e-01 -3.535518e-02 -2.184448e+00 140 51 18
-5.025024e-01 -3.481977e-02 -2.182118e+00 140 51 18
-5.077210e-01 -7.019853e-02 -2.108694e+00 136 48 17
-5.078479e-01 -7.018665e-02 -2.108506e+00 136 48 17
-5.050397e-01 -1.092271e-01 -2.039498e+00 89 5 0
-4.927624e-01 -1.103560e-01 -2.045333e+00 89 5 0
-5.002696e-01 -4.589899e-02 -2.142238e+00 133 45 21
-4.868436e-01 -1.103066e-01 -2.036413e+00 137 48 17
-4.802402e-01 -1.109588e-01 -2.039534e+00 137 48 17
-5.227567e-01 -3.656967e-02 -2.139734e+00 135 45 19
-3.750035e-01 -1.990879e-01 -1.935389e+00 100 48 1
-5.042909e-01 -9.160800e-02 -2.040573e+00 93 1 0
-5.042909e-01 -9.160800e-02 -2.040573e+00 93 1 0
-5.065005e-01 -8.626111e-02 -2.045676e+00 143 45 18
-5.065005e-01 -8.626111e-02 -2.045676e+00 143 45 18
-4.168422e-01 -1.801170e-01 -1.931963e+00 149 101 25
5.710626e-01 -4.942059e-01 -1.928142e+00 107 99 76
-3.861376e-01 -1.812987e-01 -1.927131e+00 100 58 0
-5.333553e-01 -6.200983e-04 -2.147108e+00 134 47 17
-3.266920e-01 -2.068022e-01 -1.909923e+00 156 110 33
-3.979194e-01 -1.844487e-01 -1.906220e+00 109 62 8
-5.273323e-01 -8.285955e-03 -2.129478e+00 84 6 0
-4.144169e-01 -1.705631e-01 -1.912991e+00 150 97 32
-5.114731e-01 -7.165620e-02 -2.025785e+00 89 9 7
-3.604097e-01 -1.899565e-01 -1.907220e+00 96 51 0
-3.643960e-01 -1.899758e-01 -1.906645e+00 96 51 0
-5.219099e-01 2.904403e-02 -2.182228e+00 137 53 17
-3.681453e-01 -1.861846e-01 -1.898017e+00 152 107 39
-5.320000e-01 -1.986163e-03 -2.101582e+00 89 13 0
-5.189818e-01 -4.318601e-02 -2.034793e+00 86 10 0
-5.189818e-01 -4.318601e-02 -2.034793e+00 86 10 0
-5.251221e-01 1.040859e-02 -2.107174e+00 129 48 22
-3.759061e-01 -1.676195e-01 -1.890793e+00 152 105 33
-5.161295e-01 -4.010325e-02 -2.027144e+00 136 50 23
5.225633e-01 -4.764959e-01 -1.809691e+00 26 89 10
-5.139464e-01 -2.147890e-02 -2.051887e+00 137 45 17
-5.139464e-01 -2.147890e-02 -2.051887e+00 137 45 17
-4.935252e-01 3.629223e-02 -2.149830e+00 132 49 21
-4.935252e-01 3.629223e-02 -2.149830e+00 132 49 21
6.122146e-01 -4.660800e-01 -1.855378e+00 91 100 57
-4.171777e-01 -1.428746e-01 -1.889562e+00 143 94 30
-4.171777e-01 -1.428746e-01 -1.889562e+00 143 94 30
-5.354036e-01 3.233910e-02 -2.113749e+00 86 5 0
-3.509024e-01 -1.659102e-01 -1.882593e+00 102 63 0
-4.853909e-01 -7.816088e-02 -1.945622e+00 92 11 7
-4.853909e-01 -7.816088e-02 -1.945622e+00 92 11 7
-5.315043e-01 4.961620e-02 -2.121675e+00 127 46 17
-5.229674e-01 6.534634e-03 -2.057036e+00 133 45 18
-5.229674e-01 6.534634e-03 -2.057036e+00 133 45 18
-5.315913e-01 -1.711948e-02 -2.012047e+00 82 9 0
-5.315913e-01 -1.711948e-02 -2.012047e+00 82 9 0
-5.359816e-01 6.052482e-03 -2.037477e+00 89 11 0
-5.359816e-01 6.052482e-03 -2.037477e+00 89 11 0
-4.854326e-01 -5.890388e-02 -1.944959e+00 141 47 16
-4.854326e-01 -5.890388e-02 -1.944959e+00 141 47 16
-5.121989e-01 -3.096667e-02 -1.974322e+00 139 47 22
-5.364155e-01 6.221462e-02 -2.107794e+00 133 48 20
-5.290310e-01 7.234960e-02 -2.122856e+00 128 49 21
-5.236010e-01 -1.013129e-02 -1.997599e+00 76 5 1
-5.243233e-01 -3.594482e-03 -2.003184e+00 140 47 21
-4.055656e-01 -1.209624e-01 -1.861675e+00 143 93 25
-4.622837e-01 -7.225438e-02 -1.904298e+00 98 7 1
-4.631494e-01 -7.210470e-02 -1.904230e+00 98 7 1
-5.005974e-01 -3.892902e-02 -1.938771e+00 144 49 24
-4.956042e-01 -3.965185e-02 -1.940712e+00 144 49 24
-5.361607e-01 8.619658e-02 -2.110255e+00 136 50 21
-5.361607e-01 8.619658e-02 -2.110255e+00 136 50 21
-4.252158e-01 -9.393341e-02 -1.872057e+00 145 97 25
-4.335930e-01 -9.729710e-02 -1.861575e+00 148 97 28
-5.383766e-01 4.598146e-02 -2.034186e+00 138 51 22
-5.516864e-01 3.087263e-02 -2.003241e+00 141 53 29
-5.483742e-01 6.259091e-02 -2.050880e+00 88 18 5
-4.403098e-01 -8.406995e-02 -1.866943e+00 90 44 2
-5.325430e-01 9.843631e-02 -2.102443e+00 136 53 28
-5.325430e-01 9.843631e-02 -2.102443e+00 136 53 28
-4.369028e-01 -4.904078e-02 -1.910547e+00 137 44 19
-5.462409e-01 4.519861e-02 -2.009404e+00 90 11 9
-5.462409e-01 4.519861e-02 -2.009404e+00 90 11 9
-4.032192e-01 -1.055825e-01 -1.831390e+00 108 67 6
-5.372097e-01 2.624582e-02 -1.979932e+00 130 44 16
-5.161826e-01 -1.626763e-02 -1.920428e+00 81 8 0
-4.934204e-01 -4.116427e-02 -1.889465e+00 76 7 0
-5.143096e-01 -3.678280e-03 -1.936595e+00 92 10 4
-4.412673e-01 -6.761126e-02 -1.856616e+00 83 29 0
-4.412673e-01 -6.761126e-02 -1.856616e+00 83 29 0
-4.849725e-01 -3.333153e-02 -1.892046e+00 136 50 24
-5.144148e-01 6.338944e-02 -2.019911e+00 62 5 0
-5.144148e-01 6.338944e-02 -2.019911e+00 62 5 0
-5.313635e-01 3.026667e-02 -1.964168e+00 132 46 22
-5.418618e-01 4.274284e-02 -1.976085e+00 129 46 15
-5.507317e-01 5.560971e-02 -1.987749e+00 132 45 19
-4.606469e-01 -6.090556e-02 -1.845849e+00 144 86 20
-5.540620e-01 8.472678e-02 -2.027565e+00 65 3 2
-5.540620e-01 8.472678e-02 -2.027565e+00 65 3 2
-5.540620e-01 8.472678e-02 -2.027565e+00 65 3 2
-4.281241e-01 -6.757045e-02 -1.844216e+00 157 101 33
-5.546004e-01 9.729085e-02 -2.040210e+00 68 2 0
-5.625159e-01 1.212442e-01 -2.070560e+00 134 52 27
-5.713633e-01 1.126660e-01 -2.049636e+00 66 13 0
-5.650329e-01 1.040611e-01 -2.034080e+00 131 49 20
-5.591152e-01 1.264687e-01 -2.066843e+00 68 12 0
-5.591152e-01 1.264687e-01 -2.066843e+00 68 12 0
-4.812084e-01 -2.729547e-02 -1.866001e+00 92 10 0
-5.535890e-01 6.669054e-02 -1.978578e+00 134 45 16
-5.486457e-01 1.361741e-01 -2.069461e+00 135 50 21
-4.374638e-01 -3.223707e-02 -1.837126e+00 164 83 46
-4.304195e-01 -4.781159e-02 -1.814139e+00 163 85 46
-4.110879e-01 -4.837444e-02 -1.818317e+00 163 85 46
-5.492243e-01 1.283754e-01 -2.030510e+00 81 1 0
-2.815361e-01 -8.336618e-02 -1.795616e+00 176 108 71
-5.686729e-01 1.280493e-01 -2.004589e+00 152 77 40
-5.686729e-01 1.280493e-01 -2.004589e+00 152 77 40
-2.247049e-01 4.090376e-03 -1.786782e+00 213 116 76
-5.238037e-01 -4.049948e-01 -2.293688e+00 176 87 53
-3.880890e-01 -4.555845e-01 -2.391232e+00 176 87 53
-5.356514e-01 -4.084266e-01 -2.242221e+00 147 68 34
-5.197781e-01 -3.968839e-01 -2.285237e+00 98 16 0
-4.154270e-01 -4.243531e-01 -2.355685e+00 134 55 28
-4.129688e-01 -3.707288e-01 -2.434208e+00 98 12 1
-4.062872e-01 -3.735235e-01 -2.439387e+00 98 12 1
-4.211471e-01 -3.599560e-01 -2.442116e+00 103 18 4
-4.313559e-01 -3.461204e-01 -2.448183e+00 100 5 0
-4.313559e-01 -3.461204e-01 -2.448183e+00 100 5 0
-4.228876e-01 -3.869135e-01 -2.348637e+00 104 14 9
-4.162274e-01 -3.629232e-01 -2.400705e+00 102 12 0
-4.203865e-01 -3.602342e-01 -2.354923e+00 104 9 0
-4.139816e-01 -3.782684e-01 -2.284863e+00 108 13 0
-4.184358e-01 -2.955025e-01 -2.469800e+00 77 11 0
-4.184358e-01 -2.955025e-01 -2.469800e+00 77 11 0
-5.795098e-01 -2.423417e-01 -2.353843e+00 80 8 0
-5.795098e-01 -2.423417e-01 -2.353843e+00 80 8 0
-4.248818e-01 -3.023138e-01 -2.399434e+00 110 18 0
-5.400120e-01 -2.298630e-01 -2.403794e+00 68 4 2
-4.840225e-01 -2.450851e-01 -2.444614e+00 140 67 45
-4.261680e-01 -3.429505e-01 -2.278404e+00 104 12 0
-5.546768e-01 -2.324512e-01 -2.350631e+00 41 25 30
-4.199102e-01 -2.858006e-01 -2.378405e+00 103 15 2
-4.152695e-01 -2.874138e-01 -2.381916e+00 103 15 2
-4.407837e-01 -2.707013e-01 -2.376843e+00 105 13 4
-3.831666e-01 -4.295380e-01 -2.075962e+00 103 42 0
-3.865239e-01 -4.287384e-01 -2.073056e+00 103 42 0
-3.962753e-01 -4.143773e-01 -2.089274e+00 142 82 22
-3.973010e-01 -3.608947e-01 -2.184317e+00 111 15 0
-3.973010e-01 -3.608947e-01 -2.184317e+00 111 15 0
-3.586247e-01 -1.799984e-01 -2.635972e+00 95 46 3
-4.923452e-01 -2.192281e-01 -2.385395e+00 28 11 4
-4.339648e-01 -2.171316e-01 -2.431537e+00 154 135 129
-4.339648e-01 -2.171316e-01 -2.431537e+00 154 135 129
-5.363388e-01 -2.077175e-01 -2.325770e+00 32 10 9
-4.287834e-01 -2.512298e-01 -2.345667e+00 92 10 0
-4.901235e-01 -1.426887e-01 -2.492708e+00 137 91 53
-4.529302e-01 -2.340003e-01 -2.327815e+00 141 54 22
-5.103978e-01 -1.122391e-01 -2.471862e+00 92 50 15
-4.368853e-01 -2.659067e-01 -2.145137e+00 94 11 0
-4.368853e-01 -2.659067e-01 -2.145137e+00 94 11 0
-4.621069e-01 -2.129330e-01 -2.212556e+00 81 1 0
-4.602821e-01 -2.219673e-01 -2.193164e+00 93 2 0
-4.452782e-01 -2.239287e-01 -2.191735e+00 134 48 17
-4.659814e-01 -2.023130e-01 -2.207774e+00 138 50 22
-4.659814e-01 -2.023130e-01 -2.207774e+00 138 50 22
-4.680025e-01 -1.702912e-01 -2.266177e+00 90 4 1
-4.499608e-01 -2.408742e-01 -2.139759e+00 93 15 1
-4.499608e-01 -2.408742e-01 -2.139759e+00 93 15 1
-4.243613e-01 -2.781892e-01 -2.084718e+00 99 7 0
-4.659482e-01 -1.841894e-01 -2.232201e+00 139 58 31
-4.659482e-01 -1.841894e-01 -2.232201e+00 139 58 31
-4.601586e-01 -2.075840e-01 -2.185312e+00 89 2 0
-4.626635e-01 -1.756689e-01 -2.247010e+00 136 52 27
-4.423650e-01 -2.516182e-01 -2.105725e+00 143 52 24
-4.711985e-01 -1.409450e-01 -2.298566e+00 148 56 28
-4.711985e-01 -1.409450e-01 -2.298566e+00 148 56 28
-4.731020e-01 -1.520411e-01 -2.268486e+00 136 50 24
-4.684199e-01 -1.532131e-01 -2.271412e+00 136 50 24
-4.785731e-01 -1.165764e-01 -2.317929e+00 87 12 0
-4.785731e-01 -1.165764e-01 -2.317929e+00 87 12 0
-4.066398e-01 -2.717807e-01 -2.066811e+00 100 3 0
-4.519246e-01 -2.312416e-01 -2.100868e+00 147 51 27
-4.721721e-01 -1.309140e-01 -2.274162e+00 95 17 0
-4.286713e-01 -2.518820e-01 -2.073726e+00 142 52 24
-4.812811e-01 -1.580159e-01 -2.207363e+00 75 5 5
-3.934459e-01 -2.662281e-01 -2.073138e+00 145 54 21
-4.736396e-01 -1.519581e-01 -2.219678e+00 80 0 0
-4.413329e-01 -9.264233e-02 -2.357156e+00 142 56 30
-4.660751e-01 -1.222705e-01 -2.277113e+00 142 55 28
-4.660751e-01 -1.222705e-01 -2.277113e+00 142 55 28
-4.700648e-01 -2.193514e-01 -2.084636e+00 88 4 0
-4.764542e-01 -1.810067e-01 -2.144367e+00 103 13 4
-4.736658e-01 -8.367744e-02 -2.326063e+00 96 12 0
-4.420750e-01 -2.323633e-01 -2.062089e+00 142 47 21
-4.420750e-01 -2.323633e-01 -2.062089e+00 142 47 21
-5.053710e-01 -8.445101e-02 -2.275792e+00 96 8 2
-4.601751e-01 -1.928973e-01 -2.102696e+00 95 11 2
-4.736425e-01 -1.686794e-01 -2.131070e+00 87 3 0
-4.754801e-01 -1.682065e-01 -2.130034e+00 87 3 0
-4.736425e-01 -1.686794e-01 -2.131070e+00 87 3 0
-4.731454e-01 -1.529233e-01 -2.156987e+00 87 14 0
-4.753362e-01 -1.523701e-01 -2.155981e+00 87 14 0
-4.841472e-01 -1.420398e-01 -2.161875e+00 90 3 1
-4.573361e-01 -2.156990e-01 -2.042836e+00 145 49 22
-4.808385e-01 -1.027894e-01 -2.229199e+00 136 50 27
-4.801313e-01 -7.844863e-02 -2.270284e+00 93 7 0
-4.880423e-01 -6.307222e-02 -2.293079e+00 139 55 26
-4.854006e-01 -9.714881e-02 -2.217338e+00 89 6 2
-4.562876e-01 -1.842083e-01 -2.067194e+00 142 53 24
-4.733591e-01 -8.256563e-02 -2.227502e+00 136 50 23
-4.733591e-01 -8.256563e-02 -2.227502e+00 136 50 23
-4.636163e-01 -1.930660e-01 -2.027458e+00 154 56 29
-4.591204e-01 -1.826524e-01 -2.048941e+00 153 59 31
-4.591204e-01 -1.826524e-01 -2.048941e+00 153 59 31
-4.596022e-01 -1.789788e-01 -2.055315e+00 91 2 0
-4.759672e-01 -1.521138e-01 -2.085339e+00 91 2 1
-5.017884e-01 -1.221306e-01 -2.116028e+00 147 52 25
-4.928577e-01 -1.184947e-01 -2.127177e+00 87 0 0
-4.773573e-01 -4.751995e-02 -2.261963e+00 137 51 22
-4.773573e-01 -4.751995e-02 -2.261963e+00 137 51 22
-4.989607e-01 -1.047149e-01 -2.141405e+00 82 2 0
-4.861624e-01 -8.817071e-02 -2.157200e+00 142 52 27
-4.914307e-01 -1.107610e-01 -2.107802e+00 90 3 0
-4.571648e-01 -1.660683e-01 -2.027407e+00 141 51 21
-4.915029e-01 -3.357544e-02 -2.238647e+00 135 54 27
-4.547000e-01 -1.603722e-01 -2.039267e+00 149 55 31
-4.542736e-01 -1.604808e-01 -2.039376e+00 149 55 31
-4.984825e-01 -9.414360e-02 -2.126878e+00 103 11 10
-4.998048e-01 -6.709477e-02 -2.172160e+00 141 58 31
-4.998048e-01 -6.709477e-02 -2.172160e+00 141 58 31
-5.076348e-01 -8.062111e-02 -2.137502e+00 90 4 0
-4.984615e-01 -3.259861e-02 -2.223165e+00 85 17 0
-4.984615e-01 -3.259861e-02 -2.223165e+00 85 17 0
-4.589203e-01 -1.725451e-01 -1.995395e+00 94 8 1
-4.589203e-01 -1.725451e-01 -1.995395e+00 94 8 1
-4.967981e-01 -1.047589e-01 -2.083637e+00 89 3 1
-4.979610e-01 -1.045173e-01 -2.083081e+00 89 3 1
-4.975508e-01 -3.942030e-02 -2.190714e+00 146 60 34
-4.983682e-01 -5.922361e-03 -2.245609e+00 95 10 2
-4.983682e-01 -5.922361e-03 -2.245609e+00 95 10 2
-4.738078e-01 -1.496760e-01 -2.011216e+00 144 55 30
-4.826935e-01 -1.115191e-01 -2.068964e+00 141 54 28
-2.272107e-01 -2.708447e-01 -1.944192e+00 158 106 34
-5.035191e-01 -5.513461e-02 -2.141783e+00 84 1 1
-4.733554e-01 -1.404306e-01 -2.011764e+00 79 2 0
-4.897675e-01 -1.192102e-01 -2.037811e+00 88 2 0
-4.957024e-01 -1.009108e-02 -2.222076e+00 86 12 1
-4.957024e-01 -1.009108e-02 -2.222076e+00 86 12 1
-4.087562e-01 -1.961592e-01 -1.950411e+00 147 94 25
-5.028397e-01 -1.005828e-01 -2.057242e+00 87 2 0
-4.394739e-01 -1.670399e-01 -1.975445e+00 96 6 0
-5.128548e-01 -8.115007e-03 -2.188396e+00 84 2 0
-5.091666e-01 -4.559126e-02 -2.124674e+00 88 0 0
-4.821977e-01 -1.212501e-01 -2.006886e+00 98 7 11
-4.821977e-01 -1.212501e-01 -2.006886e+00 98 7 11
-4.562771e-01 -1.484266e-01 -1.974197e+00 153 57 28
-4.833094e-01 -1.166533e-01 -2.012677e+00 148 53 18
-4.833094e-01 -1.166533e-01 -2.012677e+00 148 53 18
-5.029259e-01 -9.475618e-02 -2.034138e+00 144 50 25
-5.029259e-01 -9.475618e-02 -2.034138e+00 144 50 25
-5.027383e-01 2.067525e-02 -2.209416e+00 137 52 24
-5.027383e-01 2.067525e-02 -2.209416e+00 137 52 24
-5.254974e-01 -3.002222e-02 -2.107187e+00 144 54 27
3.961044e-01 -5.151406e-01 -1.797118e+00 123 161 90
-5.232355e-01 -2.514115e-02 -2.114386e+00 84 0 0
-5.175822e-01 -1.371892e-02 -2.129011e+00 140 54 27
-4.114528e-01 -1.672282e-01 -1.927628e+00 147 95 27
-5.128522e-01 3.201914e-02 -2.199482e+00 89 6 1
-5.128522e-01 3.201914e-02 -2.199482e+00 89 6 1
-5.135231e-01 -3.837762e-02 -2.070602e+00 77 4 0
-4.738817e-01 -1.154151e-01 -1.962846e+00 142 48 22
-4.738817e-01 -1.154151e-01 -1.962846e+00 142 48 22
-5.002726e-01 -8.529329e-02 -1.999320e+00 137 49 24
-4.912506e-01 -7.169039e-02 -2.023120e+00 135 44 20
-4.912506e-01 -7.169039e-02 -2.023120e+00 135 44 20
-5.220835e-01 -3.112977e-02 -2.074507e+00 80 8 0
-5.286247e-01 2.807736e-02 -2.167971e+00 100 13 2
-5.179669e-01 -2.400010e-02 -2.073899e+00 136 49 25
-4.641775e-01 -1.140535e-01 -1.937192e+00 140 50 26
-5.247695e-01 4.323506e-02 -2.151986e+00 93 12 0
-5.233971e-01 4.312611e-02 -2.152749e+00 93 12 0
-5.208371e-01 4.133261e-02 -2.118018e+00 129 49 19
-4.765664e-01 -8.184122e-02 -1.936265e+00 85 2 0
-5.232609e-01 1.476599e-02 -2.065929e+00 134 50 22
-5.334638e-01 3.666563e-02 -2.095924e+00 70 0 0
-5.292936e-01 2.320684e-02 -2.071923e+00 132 48 23
-5.292936e-01 2.320684e-02 -2.071923e+00 132 48 23
-4.688353e-01 -8.169548e-02 -1.931646e+00 136 51 23
-4.667049e-01 -8.208123e-02 -1.932172e+00 136 51 23
-4.750091e-01 -8.763069e-02 -1.918928e+00 141 51 26
-4.750091e-01 -8.763069e-02 -1.918928e+00 141 51 26
-4.789032e-01 -7.562121e-02 -1.937446e+00 144 52 23
-4.789032e-01 -7.562121e-02 -1.937446e+00 144 52 23
-5.336934e-01 1.876513e-02 -2.055154e+00 86 11 1
-5.288027e-01 3.191596e-02 -2.075527e+00 103 14 0
-5.365848e-01 2.988569e-02 -2.064392e+00 138 52 26
-5.365848e-01 2.988569e-02 -2.064392e+00 138 52 26
-4.737683e-01 -6.936133e-02 -1.935351e+00 84 5 1
-4.725575e-01 -6.956846e-02 -1.935694e+00 84 5 1
-5.218719e-01 2.651625e-02 -2.056933e+00 137 50 23
-5.328290e-01 8.279410e-02 -2.138104e+00 77 2 1
-5.296177e-01 5.688115e-02 -2.096659e+00 79 14 0
-5.296177e-01 5.688115e-02 -2.096659e+00 79 14 0
-5.183550e-01 -4.006667e-02 -1.948545e+00 140 48 24
-5.183550e-01 -4.006667e-02 -1.948545e+00 140 48 24
-5.297898e-01 8.178610e-02 -2.130643e+00 129 54 24
-5.316622e-01 1.978011e-02 -2.033309e+00 85 0 2
-5.322220e-01 4.682147e-02 -2.073110e+00 130 51 23
-5.322220e-01 4.682147e-02 -2.073110e+00 130 51 23
-5.358508e-01 3.187137e-02 -2.042988e+00 86 7 1
-4.911984e-01 -5.076746e-02 -1.931042e+00 85 5 1
-5.179303e-01 -1.945529e-02 -1.964707e+00 80 0 3
-5.026699e-01 -3.089801e-02 -1.950818e+00 85 1 0
-5.135110e-01 -1.376090e-02 -1.970607e+00 139 54 29
-5.132663e-01 -1.354155e-02 -1.970675e+00 139 54 29
-5.205695e-01 -6.377733e-03 -1.978494e+00 136 49 28
-5.327785e-01 7.063609e-02 -2.086933e+00 88 7 4
-5.462073e-01 4.454676e-02 -2.043533e+00 135 49 26
-5.462073e-01 4.454676e-02 -2.043533e+00 135 49 26
-5.392112e-01 6.650070e-02 -2.076670e+00 138 52 23
-4.824567e-01 -6.096032e-02 -1.903525e+00 140 46 20
-5.352927e-01 9.366568e-02 -2.117996e+00 130 52 22
-5.352927e-01 9.366568e-02 -2.117996e+00 130 52 22
-5.383081e-01 6.063394e-02 -2.063628e+00 134 55 25
-5.327174e-01 4.102635e-02 -2.031538e+00 88 4 0
-5.482751e-01 8.659819e-02 -2.094467e+00 90 10 4
-4.876308e-01 -4.200099e-02 -1.918868e+00 87 3 0
-3.935855e-01 -1.087001e-01 -1.849447e+00 152 104 30
-3.937084e-01 -9.867808e-02 -1.856821e+00 86 44 1
-5.471719e-01 7.721190e-02 -2.063830e+00 137 54 26
-5.471719e-01 7.721190e-02 -2.063830e+00 137 54 26
-5.447779e-01 7.369646e-02 -2.058826e+00 88 1 0
-5.102499e-01 -1.960272e-04 -1.956263e+00 135 44 21
-5.366192e-01 7.362636e-02 -2.055107e+00 135 48 20
-4.856325e-01 -3.254930e-02 -1.905351e+00 142 61 33
-5.364839e-01 1.862456e-02 -1.958527e+00 63 6 0
-5.106764e-01 -1.449378e-02 -1.911107e+00 134 44 19
-5.122147e-01 -1.430005e-02 -1.910586e+00 134 44 19
-4.343522e-01 -7.048643e-02 -1.850171e+00 79 19 0
-5.504509e-01 4.930756e-02 -1.981099e+00 137 55 33
-5.430099e-01 9.175502e-02 -2.038740e+00 141 51 32
-5.430099e-01 9.175502e-02 -2.038740e+00 141 51 32
-5.518875e-01 7.866593e-02 -2.012936e+00 129 59 36
-5.080429e-01 -5.309546e-03 -1.903307e+00 136 52 29
-5.347159e-01 2.797627e-02 -1.936858e+00 132 45 19
-4.920670e-01 1.969703e-01 -2.187802e+00 73 53 34
-4.611729e-01 2.035476e-01 -2.206583e+00 73 53 34
-4.391819e-01 -4.724005e-02 -1.847757e+00 165 85 47
-5.629277e-01 1.006274e-01 -2.020663e+00 85 4 1
-5.473150e-01 5.078787e-02 -1.950264e+00 83 0 0
-2.577692e-01 -9.672428e-02 -1.808170e+00 176 120 61
-4.853980e-01 2.133884e-01 -2.177880e+00 171 154 123
-5.631589e-01 9.581991e-02 -1.981888e+00 161 87 48
-5.651872e-01 1.402021e-01 -2.039444e+00 91 9 1
-5.651872e-01 1.402021e-01 -2.039444e+00 91 9 1
-4.997616e-01 2.493603e-01 -2.142565e+00 161 117 83
-5.244491e-01 2.420279e-01 -2.119925e+00 103 50 18
-2.791825e-01 1.311380e-02 -1.743385e+00 52 28 26
-4.884166e-01 3.229093e-01 -2.060918e+00 78 18 2
-3.841523e-01 -4.690645e-01 -2.381464e+00 213 128 89
-4.796127e-01 -4.304423e-01 -2.268039e+00 112 25 2
-3.957054e-01 -4.364464e-01 -2.324528e+00 143 70 42
-4.103326e-01 -4.036054e-01 -2.276982e+00 113 23 1
-3.998971e-01 -2.728407e-01 -2.511645e+00 80 4 1
-4.181928e-01 -2.676103e-01 -2.484344e+00 134 57 36
-4.181928e-01 -2.676103e-01 -2.484344e+00 134 57 36
-4.248404e-01 -3.503420e-01 -2.256646e+00 111 15 1
-4.220298e-01 -2.687592e-01 -2.432715e+00 99 88 90
-5.450843e-01 -2.345779e-01 -2.346407e+00 90 75 78
-4.223270e-01 -2.454699e-01 -2.471365e+00 44 32 32
-4.401438e-01 -2.550862e-01 -2.418654e+00 40 23 25
-5.271903e-01 -2.300887e-01 -2.368029e+00 89 74 75
-4.347377e-01 -2.690151e-01 -2.391754e+00 150 65 34
-3.525598e-01 -1.942045e-01 -2.655091e+00 108 53 2
-4.442153e-01 -2.919562e-01 -2.303376e+00 98 7 2
-4.279285e-01 -2.401575e-01 -2.434488e+00 158 141 134
-3.410407e-01 -1.849044e-01 -2.666145e+00 141 92 42
-5.503058e-01 -2.199112e-01 -2.327499e+00 34 17 13
-4.257735e-01 -2.288716e-01 -2.447882e+00 143 128 124
-4.257735e-01 -2.288716e-01 -2.447882e+00 143 128 124
-4.345199e-01 -2.335096e-01 -2.412309e+00 145 127 122
-5.299159e-01 -2.175015e-01 -2.336227e+00 145 127 122
-4.322029e-01 -2.161635e-01 -2.442129e+00 39 21 12
-4.322029e-01 -2.161635e-01 -2.442129e+00 39 21 12
-4.569430e-01 -2.474359e-01 -2.341280e+00 137 54 26
-4.429314e-01 -2.889125e-01 -2.238079e+00 112 15 0
-4.461687e-01 -2.362393e-01 -2.345683e+00 102 8 0
-5.466514e-01 -1.946426e-01 -2.305125e+00 79 8 2
-4.911039e-01 -1.310956e-01 -2.486830e+00 105 61 26
