ply
format ascii 1.0
element face 0
property list uchar int vertex_indices
element vertex 937
property float x
property float y
property float z
property uchar diffuse_red
property uchar diffuse_green
property uchar diffuse_blue
end_header
-1.948779e-01 -4.865547e-01 -1.953713e+00 77 12 7
-3.503372e-01 -4.995724e-01 -1.990755e+00 94 41 1
-3.808729e-01 -4.981053e-01 -2.000393e+00 89 29 0
3.570241e-01 -4.415816e-01 -1.835109e+00 28 22 2
-2.522992e-01 -4.841602e-01 -1.973182e+00 88 24 6
-2.156066e-01 -4.776819e-01 -1.960262e+00 136 72 24
1.307315e-01 -4.901567e-01 -1.992197e+00 80 53 43
-2.412445e-01 -4.757895e-01 -1.966983e+00 134 74 26
-2.514406e-01 -4.694219e-01 -1.967405e+00 85 20 0
-1.881129e-01 -4.656792e-01 -1.959776e+00 84 22 4
-4.525904e-02 -4.570675e-01 -1.947650e+00 66 3 2
-2.303543e-01 -4.542509e-01 -1.966105e+00 70 9 0
2.784844e-02 -4.537722e-01 -1.966932e+00 115 35 24
-1.894384e-01 -4.436497e-01 -1.951597e+00 82 19 2
-3.755353e-01 -4.529198e-01 -2.002504e+00 143 81 33
-4.808055e-01 -4.747347e-01 -2.081788e+00 156 124 82
-1.992597e-01 -4.346519e-01 -1.958630e+00 73 9 0
-1.991379e-01 -4.259510e-01 -1.958297e+00 77 17 0
-2.101946e-01 -3.884825e-01 -1.962420e+00 95 31 1
-7.951918e-02 -3.793093e-01 -1.941978e+00 131 51 35
-7.951918e-02 -3.793093e-01 -1.941978e+00 131 51 35
-3.644890e-01 -3.838521e-01 -1.994945e+00 142 84 31
-2.597609e-01 -3.737469e-01 -1.965383e+00 83 19 0
-2.108365e-01 -3.698858e-01 -1.962003e+00 89 25 1
-3.894456e-01 -3.721162e-01 -1.999852e+00 141 84 28
-1.123614e-01 -3.613129e-01 -1.955206e+00 150 59 38
-1.124310e-01 -3.615500e-01 -1.955928e+00 150 59 38
-1.597581e-01 -3.570446e-01 -1.953513e+00 110 33 2
-2.559542e-02 -3.504806e-01 -1.947099e+00 61 2 2
-2.012304e-01 -3.502172e-01 -1.956312e+00 82 23 8
4.729505e-03 -3.474890e-01 -1.949422e+00 119 43 35
3.555900e-02 -3.385051e-01 -1.951089e+00 111 43 31
5.474987e-02 -3.278154e-01 -1.935949e+00 69 0 1
-2.487446e-01 -3.277908e-01 -1.961933e+00 92 34 7
-7.399266e-02 -3.131252e-01 -1.947936e+00 63 6 5
-7.399782e-02 -3.129739e-01 -1.947570e+00 63 6 5
-1.328431e-01 -3.103035e-01 -1.930719e+00 116 41 13
-3.017178e-02 -3.086267e-01 -1.946045e+00 131 49 41
-2.628451e-01 -3.074110e-01 -1.966480e+00 99 38 6
-3.125448e-02 -2.851514e-01 -1.941586e+00 73 3 0
-3.415540e-01 -2.784472e-01 -1.987788e+00 147 90 43
-3.450216e-01 -2.744647e-01 -1.988094e+00 96 35 0
8.225706e-03 -2.548765e-01 -1.947142e+00 138 53 33
-4.655979e-02 -2.497595e-01 -1.944088e+00 109 25 5
-4.655979e-02 -2.497595e-01 -1.944088e+00 109 25 5
-2.110676e-01 -2.502491e-01 -1.962710e+00 136 79 18
3.497311e-01 -2.410819e-01 -1.954802e+00 201 186 162
-4.542294e-01 -2.467154e-01 -2.037537e+00 146 91 50
-4.281610e-02 -2.012779e-01 -1.945948e+00 160 69 49
-4.501796e-01 -2.090579e-01 -2.036506e+00 112 47 10
-3.052279e-01 -2.025753e-01 -1.978378e+00 139 80 24
-3.465687e-01 -2.028250e-01 -1.990438e+00 92 46 12
4.718515e-02 -1.920922e-01 -1.952675e+00 107 16 0
-3.797922e-01 -1.896108e-01 -1.996132e+00 142 96 43
4.804715e-02 -1.836718e-01 -1.947430e+00 142 54 34
-2.003562e-01 -1.766573e-01 -1.959176e+00 73 16 1
-2.003562e-01 -1.766573e-01 -1.959176e+00 73 16 1
-3.426407e-01 -1.747728e-01 -1.990528e+00 74 27 1
-8.955942e-02 -1.666298e-01 -1.950872e+00 141 90 42
-4.277533e-01 -1.619111e-01 -2.013005e+00 167 107 49
-3.467290e-01 -1.539924e-01 -1.988187e+00 131 81 23
8.659625e-02 -1.374769e-01 -1.957188e+00 149 89 51
-2.011119e-01 -1.377687e-01 -1.966432e+00 94 37 10
-2.094775e-01 -1.219576e-01 -1.966294e+00 141 88 37
-2.671264e-01 -1.067892e-01 -1.962238e+00 138 83 26
-2.667796e-01 -1.071599e-01 -1.962865e+00 138 83 26
-4.320218e-01 -9.912919e-02 -2.015767e+00 164 105 47
-7.504859e-02 -8.887707e-02 -1.942041e+00 79 29 10
-3.861489e-01 -8.521348e-02 -2.007815e+00 138 91 26
-3.285445e-01 -8.422403e-02 -1.963117e+00 141 90 30
-1.167992e-01 -8.050545e-02 -1.948283e+00 85 26 10
-3.497886e-03 -7.641527e-02 -1.949796e+00 77 22 12
-3.497886e-03 -7.641527e-02 -1.949796e+00 77 22 12
-1.021230e-01 -4.902418e-02 -1.944750e+00 53 11 7
1.037896e-01 -4.300693e-02 -1.955054e+00 138 81 37
-2.777011e-01 -3.984632e-02 -1.949977e+00 116 32 4
-4.351523e-01 -3.487971e-02 -2.020906e+00 150 94 46
-7.170426e-02 -3.230986e-02 -1.944209e+00 126 78 27
-6.976308e-02 -7.709807e-03 -1.950598e+00 117 30 3
3.394541e-02 7.682314e-03 -1.951776e+00 155 101 38
-2.578910e-01 5.945820e-02 -1.975389e+00 192 96 57
1.372067e-01 1.718878e-01 -1.983310e+00 151 107 60
-8.169302e-02 3.058747e-01 -2.019803e+00 43 34 44
-1.260803e-01 3.067126e-01 -2.023705e+00 52 38 47
-2.300724e-01 3.185107e-01 -2.046949e+00 50 38 50
-3.840477e-03 3.117500e-01 -2.001708e+00 52 39 43
5.287008e-03 3.173691e-01 -2.003909e+00 55 42 50
5.287008e-03 3.173691e-01 -2.003909e+00 55 42 50
-1.844409e-01 3.310970e-01 -2.034163e+00 99 84 87
-1.816360e-01 3.442331e-01 -2.062556e+00 92 80 84
-3.620515e-01 3.521903e-01 -2.082510e+00 79 68 86
-4.284051e-01 4.118485e-01 -2.135378e+00 29 22 35
-6.537804e-02 4.412450e-01 -2.098925e+00 42 27 19
2.461116e+00 1.322360e+00 -2.838972e+00 12 11 6
2.275602e-01 -5.061970e-01 -1.805692e+00 144 175 105
2.290400e-01 -5.083602e-01 -1.809420e+00 144 175 105
-1.802837e-01 -7.655745e-01 -1.858053e+00 170 153 108
1.011189e-02 -6.742344e-01 -1.867914e+00 44 85 28
-5.883503e-02 -7.132328e-01 -1.857095e+00 177 156 110
-2.416163e-01 -7.291341e-01 -1.885081e+00 25 89 36
-3.372471e-01 -9.058570e-02 -1.983384e+00 102 58 23
-3.374065e-01 -9.071029e-02 -1.983892e+00 102 58 23
-3.672217e-01 -8.005154e-01 -1.864692e+00 173 185 134
9.159687e-02 -6.335806e-01 -1.865976e+00 165 176 123
-1.026611e-01 -1.069619e-01 -1.954180e+00 132 75 8
-1.026611e-01 -1.069619e-01 -1.954180e+00 132 75 8
1.456277e-01 -5.782281e-02 -2.006900e+00 129 83 42
9.398200e-01 -6.098414e-01 -1.742821e+00 179 165 122
2.178917e-03 -3.671940e-01 -1.954441e+00 62 6 2
-3.435869e-01 -2.187593e-01 -1.997785e+00 142 94 19
-2.611695e-02 -1.587385e-01 -1.972002e+00 83 39 27
-2.769254e-02 -8.745908e-02 -1.938722e+00 93 51 28
-2.769254e-02 -8.745908e-02 -1.938722e+00 93 51 28
-3.599727e-01 2.371603e-01 -1.890715e+00 95 85 77
2.825043e-01 -5.456350e-01 -1.840773e+00 96 111 79
2.399049e-01 -5.119017e-01 -1.848079e+00 13 79 9
-2.458032e-01 -4.800561e-01 -1.973353e+00 141 77 27
6.717490e-02 -3.667713e-01 -1.974221e+00 61 0 0
6.018509e-02 -3.294121e-01 -1.956190e+00 57 2 0
5.769340e-01 -2.747437e-01 -1.947174e+00 196 183 143
-4.056092e-01 -2.050482e-01 -2.038929e+00 142 99 30
-3.983950e-01 2.998753e-01 -2.042674e+00 108 94 87
6.801930e-01 -9.267310e-01 -1.750328e+00 28 22 6
-4.315801e-01 -8.058118e-01 -1.898342e+00 195 183 156
-3.190693e-01 -7.734003e-01 -1.878772e+00 170 198 121
4.647358e-01 -6.594145e-01 -1.733363e+00 59 57 46
4.647358e-01 -6.594145e-01 -1.733363e+00 59 57 46
-1.958353e-01 -7.224819e-01 -1.870289e+00 32 47 12
-2.258988e-01 -7.158829e-01 -1.875324e+00 24 66 21
-1.681751e-02 -6.908126e-01 -1.863352e+00 46 49 2
-1.636609e-01 -6.827718e-01 -1.877776e+00 187 178 142
1.754583e-01 -5.582614e-01 -1.849780e+00 16 30 0
1.751288e-01 -5.360271e-01 -1.845813e+00 5 65 2
3.254883e-01 -4.714081e-01 -1.846672e+00 15 55 5
2.072264e-03 -5.104119e-01 -1.960160e+00 77 1 1
-1.931230e-01 -4.781743e-01 -1.960702e+00 131 66 24
-1.930534e-01 -4.778365e-01 -1.959351e+00 131 66 24
-2.029127e-01 -4.700779e-01 -1.966023e+00 141 80 32
1.344575e-01 -3.788931e-01 -1.987911e+00 23 2 0
-2.620856e-01 -3.671485e-01 -1.970872e+00 85 15 0
1.435808e-01 -3.560469e-01 -1.983568e+00 202 187 158
1.548843e-02 -3.070372e-01 -1.950768e+00 117 40 26
6.668864e-02 -2.862911e-01 -2.018715e+00 116 37 27
1.375467e-01 -2.658417e-01 -1.972559e+00 130 113 70
-3.891539e-01 -2.697677e-01 -2.002842e+00 75 31 2
-1.610060e-03 -2.150549e-01 -1.955914e+00 105 15 0
-8.140747e-02 -1.868128e-01 -1.955814e+00 161 110 71
-1.129037e-01 -8.631203e-02 -1.950794e+00 134 77 17
-4.552733e-01 -7.601605e-02 -2.025376e+00 114 52 13
-6.310860e-02 -7.375072e-02 -1.945561e+00 132 78 17
-3.114933e-01 -5.621589e-02 -1.966320e+00 156 105 48
-4.572731e-01 -3.728407e-02 -2.019886e+00 113 54 14
1.454274e-02 -3.301777e-02 -1.959005e+00 133 86 39
-7.702326e-02 -3.059116e-02 -1.947205e+00 54 2 0
-1.533904e-01 3.064855e-01 -2.022789e+00 47 35 46
-4.758914e-01 3.241634e-01 -2.052856e+00 57 41 35
-4.206555e-01 -8.152643e-01 -1.847556e+00 171 200 162
-3.674222e-01 -8.504751e-01 -1.886639e+00 41 64 9
-4.320863e-01 -8.307328e-01 -1.882701e+00 30 65 1
4.212491e-01 -7.338356e-01 -1.726191e+00 32 29 14
4.243731e-01 -7.201458e-01 -1.713130e+00 54 48 34
4.586899e-01 -7.235239e-01 -1.730512e+00 65 62 52
3.237062e-01 -7.863336e-01 -1.826022e+00 88 78 51
-3.217932e-01 -7.884929e-01 -1.882930e+00 171 193 147
-2.419000e-01 -7.678422e-01 -1.874787e+00 30 66 23
3.846317e-01 -6.921905e-01 -1.766243e+00 37 37 29
-2.406411e-01 -7.168651e-01 -1.881793e+00 188 181 150
9.396955e-01 -6.529682e-01 -1.737465e+00 51 49 30
9.298069e-01 -6.084650e-01 -1.732826e+00 181 168 126
-1.217986e-02 -6.491907e-01 -1.859271e+00 51 109 50
2.571760e-01 -6.449112e-01 -1.863573e+00 23 16 6
6.652188e-01 -5.816488e-01 -1.737154e+00 67 64 54
7.392279e-02 -6.266963e-01 -1.852630e+00 154 182 139
3.731650e-01 -5.788974e-01 -1.810564e+00 43 43 35
1.189127e-01 -5.957801e-01 -1.854228e+00 43 76 25
4.405943e-01 -5.366207e-01 -1.814329e+00 55 52 45
3.085277e-01 -5.140270e-01 -1.837308e+00 182 211 163
3.136198e-01 -5.118939e-01 -1.835648e+00 55 76 30
-2.567696e-01 -5.468235e-01 -1.971251e+00 164 104 65
-1.949060e-01 -5.297733e-01 -1.964858e+00 79 13 0
3.619446e-01 -4.863935e-01 -1.838992e+00 37 72 20
-4.732695e-02 -5.260364e-01 -1.958332e+00 73 1 1
-5.468740e-02 -5.242658e-01 -1.957688e+00 72 5 1
3.276733e-01 -4.804979e-01 -1.838375e+00 43 130 43
-2.168797e-01 -5.239157e-01 -1.968493e+00 90 30 7
9.145121e-02 -5.224909e-01 -1.975147e+00 63 28 21
-1.768212e-03 -5.132765e-01 -1.964464e+00 121 32 24
2.928764e-01 -4.668402e-01 -1.837722e+00 8 24 4
-2.293679e-01 -4.931973e-01 -1.969279e+00 69 11 0
-2.379892e-01 -4.898093e-01 -1.967804e+00 80 16 2
-2.300011e-01 -4.740697e-01 -1.967398e+00 72 13 0
-2.611592e-01 -4.770129e-01 -1.990278e+00 137 73 29
-7.442896e-03 -4.693613e-01 -1.964349e+00 75 3 1
-6.899294e-03 -4.706907e-01 -1.967310e+00 75 3 1
-1.974259e-01 -4.661457e-01 -1.962579e+00 80 13 0
-4.526383e-02 -4.664021e-01 -1.961274e+00 74 6 2
-1.983154e-01 -4.544572e-01 -1.962515e+00 79 13 0
-2.311952e-01 -4.560446e-01 -1.968909e+00 64 6 0
-2.520440e-01 -4.572962e-01 -1.972486e+00 132 68 13
-4.140334e-01 -4.666300e-01 -2.019769e+00 161 98 54
-2.209694e-01 -4.306300e-01 -1.969396e+00 81 21 1
-3.639027e-01 -4.235741e-01 -1.998921e+00 148 87 39
-3.807607e-01 -4.232134e-01 -2.004501e+00 91 33 2
-4.041640e-01 -4.222699e-01 -2.013234e+00 138 87 33
-3.821253e-02 -3.932114e-01 -1.950355e+00 115 42 32
-3.763841e-02 -3.952868e-01 -1.957230e+00 115 42 32
-4.043166e-01 -4.034856e-01 -2.008466e+00 146 89 30
-2.014319e-01 -3.917401e-01 -1.968242e+00 79 18 1
-6.597403e-02 -3.858304e-01 -1.954185e+00 69 4 2
-1.922538e-01 -3.785272e-01 -1.962121e+00 77 13 1
-2.484984e-01 -3.705709e-01 -1.971795e+00 73 11 0
-3.348672e-02 -3.647187e-01 -1.946320e+00 116 34 21
-1.930655e-01 -3.532604e-01 -1.960711e+00 71 12 2
4.890537e-02 -3.519879e-01 -1.963431e+00 74 2 2
-2.486936e-01 -3.501034e-01 -1.968234e+00 80 16 6
-1.934532e-01 -3.404739e-01 -1.964168e+00 74 8 3
-4.458752e-01 -3.330194e-01 -2.017724e+00 121 67 20
-1.936688e-01 -3.201761e-01 -1.960382e+00 73 14 0
-4.161600e-02 -3.153826e-01 -1.949652e+00 60 2 3
-2.036429e-01 -3.131213e-01 -1.968111e+00 84 28 6
-2.578460e-03 -3.077641e-01 -1.955997e+00 58 0 1
-7.376151e-02 -3.031292e-01 -1.953389e+00 63 3 3
-6.624925e-02 -2.926290e-01 -1.947269e+00 69 4 2
-3.542450e-01 -2.617688e-01 -1.762550e+00 123 77 35
6.772436e-01 -2.966801e-01 -2.018731e+00 79 67 38
6.124921e-01 -2.878969e-01 -1.970975e+00 49 51 30
-4.155977e-01 -2.905294e-01 -2.012278e+00 115 57 3
2.406919e-02 -2.781027e-01 -1.955225e+00 121 55 49
-4.179235e-01 -2.491787e-01 -2.012408e+00 108 57 2
-1.846808e-01 -2.389431e-01 -1.960889e+00 80 21 0
-2.342454e-01 -2.246145e-01 -1.970043e+00 145 94 26
-1.846557e-01 -2.081468e-01 -1.959572e+00 85 20 4
-1.839259e-01 -1.985907e-01 -1.952996e+00 101 40 9
-1.014230e-01 -1.879675e-01 -1.955822e+00 159 98 53
-3.343947e-01 -1.837880e-01 -1.976018e+00 100 46 0
-3.194131e-01 -1.742662e-01 -1.984830e+00 77 39 1
6.260040e-02 -1.451412e-01 -1.956301e+00 108 45 2
-3.316875e-01 -1.485249e-01 -1.983550e+00 138 86 28
-2.333719e-02 -1.427216e-01 -1.948275e+00 58 5 3
-1.346107e-01 -1.278610e-01 -1.956793e+00 118 42 4
-1.700974e-01 -1.267427e-01 -1.949212e+00 170 113 69
-1.702145e-01 -1.268531e-01 -1.949250e+00 170 113 69
-1.862264e-01 -1.191205e-01 -1.959061e+00 86 25 3
-5.186699e-02 -1.044618e-01 -1.940297e+00 126 72 20
-2.261730e-01 -1.046911e-01 -1.966541e+00 71 20 4
-1.973532e-01 -9.990091e-02 -1.959279e+00 78 32 8
-3.421175e-01 -9.474638e-02 -1.986002e+00 71 18 6
-4.755803e-01 -9.214393e-02 -2.048490e+00 134 102 56
-3.421410e-01 -8.089848e-02 -1.983116e+00 141 89 27
-2.209651e-01 -7.103603e-02 -1.965771e+00 63 7 1
-2.024353e-01 -7.041454e-02 -1.960392e+00 80 27 2
-4.252752e-01 -5.764988e-02 -2.010176e+00 105 61 3
-2.646504e-01 -4.421197e-02 -1.949642e+00 164 80 50
1.072821e-01 -3.327884e-02 -1.961876e+00 105 49 2
-1.031622e-01 -3.180519e-02 -1.952035e+00 61 8 0
-1.032708e-01 -3.176325e-02 -1.953833e+00 61 8 0
-1.244721e-01 -2.831671e-02 -1.956977e+00 123 73 27
-3.599795e-01 -2.271893e-02 -1.986815e+00 119 35 9
9.556580e-02 -6.843381e-03 -1.961755e+00 138 87 35
-8.784876e-02 -1.052082e-02 -1.954633e+00 117 30 0
-6.140677e-02 -7.796917e-03 -1.939672e+00 120 30 2
-3.639086e-01 -4.064207e-03 -1.982189e+00 122 35 5
-2.752506e-01 6.553776e-02 -1.965823e+00 135 38 3
-1.088385e-01 1.037441e-01 -1.952256e+00 43 38 38
-5.421690e-02 3.023359e-01 -2.010859e+00 102 89 98
-2.623165e-01 3.164645e-01 -2.038981e+00 95 84 88
-9.460889e-02 3.207984e-01 -2.025097e+00 44 34 42
-3.133027e-01 3.327190e-01 -2.059480e+00 44 33 45
-1.834748e-01 3.300216e-01 -2.029382e+00 100 86 90
-1.046890e-01 3.430277e-01 -2.047729e+00 48 35 44
-1.147794e-01 3.418116e-01 -2.047200e+00 50 37 46
-4.821111e-01 3.638170e-01 -2.077790e+00 57 40 16
3.702705e-01 -5.211640e-01 -1.825540e+00 4 6 1
9.337337e-01 -7.102803e-01 -1.727405e+00 166 151 112
-1.766608e-01 -7.333337e-01 -1.844096e+00 37 91 30
-3.249382e-01 -7.609951e-01 -1.879557e+00 22 81 22
-1.766069e-01 -6.799493e-01 -1.850152e+00 33 92 35
-1.554074e-01 -6.706546e-01 -1.849661e+00 35 90 30
1.243696e-02 -6.051702e-01 -1.785842e+00 159 182 124
4.797301e-03 -5.995797e-01 -1.806995e+00 14 105 21
-4.164927e-01 -7.966954e-01 -1.831149e+00 136 149 105
-4.226433e-01 -7.987020e-01 -1.879402e+00 28 85 33
5.308857e-01 -6.584524e-01 -1.723664e+00 59 57 41
-1.231413e-01 -3.184193e-01 -1.952353e+00 132 60 28
-1.231413e-01 -3.184193e-01 -1.952353e+00 132 60 28
-2.807419e-01 -1.963327e-01 -1.965403e+00 99 41 0
-2.928440e-01 -1.551486e-01 -1.965483e+00 96 42 0
-2.928440e-01 -1.551486e-01 -1.965483e+00 96 42 0
-9.406967e-02 -1.180827e-01 -1.954628e+00 92 45 23
-1.186219e-01 -3.048222e-02 -1.943813e+00 80 36 20
-1.195906e-01 -3.187934e-02 -1.938489e+00 80 36 20
-7.132137e-02 -1.708939e-02 -1.940609e+00 156 116 44
-2.224681e-01 2.768237e-01 -1.936678e+00 52 42 59
-3.416362e-01 3.495666e-01 -2.075894e+00 52 41 58
-2.905180e-01 -7.957050e-01 -1.844779e+00 148 139 91
-2.121843e-01 -7.747699e-01 -1.870294e+00 54 71 24
-2.092457e-01 -7.179644e-01 -1.869854e+00 187 212 147
2.289083e-01 -5.676909e-01 -1.836763e+00 13 31 0
7.714117e-01 -4.756757e-01 -1.775808e+00 39 29 5
-2.817710e-01 -2.944483e-01 -1.985687e+00 68 25 1
-6.846202e-02 -1.625199e-01 -1.965360e+00 75 27 12
-4.192084e-01 -1.438685e-01 -2.016661e+00 104 66 11
-1.133133e-01 -1.047251e-01 -1.952931e+00 141 81 16
-8.530728e-02 -7.541719e-02 -1.952132e+00 94 51 16
-7.179804e-02 -5.109992e-02 -1.945520e+00 60 25 8
-7.179804e-02 -5.109992e-02 -1.945520e+00 60 25 8
-3.557556e-01 -8.013365e-01 -1.867963e+00 173 197 127
2.583940e-01 -5.444451e-01 -1.828947e+00 15 42 15
2.827732e-01 -5.464908e-01 -1.842189e+00 93 110 73
-3.076939e-01 -5.154739e-01 -1.980873e+00 86 20 0
-3.330835e-01 -5.147948e-01 -1.997242e+00 94 41 2
-3.330835e-01 -5.147948e-01 -1.997242e+00 94 41 2
-7.391142e-05 -4.868611e-01 -1.944985e+00 78 4 3
-4.013314e-01 -4.707791e-01 -2.013494e+00 96 41 3
-1.846354e-01 -4.172486e-01 -1.960666e+00 131 65 13
-2.364171e-01 -3.910020e-01 -1.965830e+00 77 25 0
-7.308261e-03 -3.891902e-01 -1.967353e+00 60 0 0
-1.806600e-02 -3.820753e-01 -1.954828e+00 126 33 19
-7.037990e-02 -3.730425e-01 -1.950241e+00 137 39 20
-1.800922e-01 -3.679290e-01 -1.950686e+00 107 44 3
5.182697e-03 -3.688421e-01 -1.966520e+00 66 7 5
-8.147729e-03 -3.572446e-01 -1.939895e+00 124 31 17
-8.147729e-03 -3.572446e-01 -1.939895e+00 124 31 17
2.665114e-02 -3.576607e-01 -1.949018e+00 60 2 0
-1.049023e-03 -3.477224e-01 -1.947696e+00 73 1 1
-1.049023e-03 -3.477224e-01 -1.947696e+00 73 1 1
1.240699e-02 -3.461213e-01 -1.953745e+00 64 3 2
2.229009e-01 -3.128513e-01 -1.975873e+00 37 31 19
-4.139159e-01 -2.233177e-01 -2.010029e+00 100 57 4
-3.693484e-01 -1.523048e-01 -1.992250e+00 139 91 28
-3.913775e-02 -1.012783e-01 -1.947054e+00 130 72 9
-4.791386e-01 -7.735791e-02 -2.060829e+00 135 95 52
-1.337848e-01 -5.164852e-02 -1.942009e+00 170 113 58
3.920016e-01 -7.012669e-01 -1.739946e+00 42 42 34
3.966363e-01 -7.063977e-01 -1.746187e+00 42 42 34
-2.585779e-01 -7.500537e-01 -1.873577e+00 40 58 2
4.261418e-01 -6.497579e-01 -1.747483e+00 78 79 68
9.390153e-01 -6.274216e-01 -1.740066e+00 97 89 60
1.595701e-01 -5.976215e-01 -1.842772e+00 123 139 92
2.808253e-01 -5.362607e-01 -1.835732e+00 12 54 5
7.741150e-01 -4.963368e-01 -1.743032e+00 63 58 47
4.945655e-01 -5.023456e-01 -1.815115e+00 61 61 51
3.633063e-01 -4.885390e-01 -1.825400e+00 33 79 21
-3.671813e-01 -5.255608e-01 -1.997403e+00 168 109 67
-2.356381e-01 -4.558717e-01 -1.964348e+00 136 75 24
-1.635082e-01 -3.917104e-01 -1.959287e+00 174 110 66
-1.250897e-01 -3.526157e-01 -1.955664e+00 117 27 1
-1.081672e-01 -3.130699e-01 -1.947642e+00 115 24 0
2.049284e-02 -2.772778e-01 -1.965092e+00 66 0 0
-4.041519e-01 -2.587061e-01 -2.012273e+00 97 46 5
-3.929139e-01 -2.356486e-01 -2.039026e+00 151 99 32
-1.842594e-01 -2.072211e-01 -1.951880e+00 91 26 2
-3.657913e-01 -1.996288e-01 -1.987548e+00 80 38 0
-1.684005e-01 -1.813156e-01 -1.949216e+00 165 118 63
7.334950e-02 -1.712418e-01 -1.947054e+00 145 59 36
-1.811652e-01 -8.281743e-02 -1.940512e+00 141 83 24
-2.645983e-01 -6.121335e-02 -1.941870e+00 159 104 44
3.522017e-02 -2.693729e-02 -1.946080e+00 76 32 2
-8.018554e-03 3.705153e-03 -1.956832e+00 120 33 2
-3.364181e-01 2.856313e-01 -2.030345e+00 116 106 96
-1.714290e-01 3.226200e-01 -2.017889e+00 102 91 96
4.284546e-01 -8.967090e-01 -1.764305e+00 67 65 50
-4.711755e-01 -8.685323e-01 -1.872426e+00 186 183 142
-4.252263e-01 -8.533723e-01 -1.881253e+00 46 98 46
-3.373086e-01 -7.892995e-01 -1.835408e+00 156 176 134
4.471986e-01 -7.122370e-01 -1.716752e+00 61 59 46
-3.554469e-01 -7.898322e-01 -1.860434e+00 25 75 1
-4.045234e-01 -8.017919e-01 -1.878416e+00 41 103 33
-3.547803e-01 -7.640307e-01 -1.843190e+00 68 150 65
-3.210560e-01 -7.527290e-01 -1.840684e+00 53 96 47
-3.382294e-01 -7.785690e-01 -1.879903e+00 177 211 153
-2.757018e-01 -7.518493e-01 -1.877883e+00 171 213 147
4.073469e-01 -6.472328e-01 -1.750077e+00 22 22 14
3.953813e-01 -6.405564e-01 -1.753407e+00 78 76 63
-4.976134e-02 -6.572398e-01 -1.846276e+00 26 78 3
1.765868e-01 -5.941586e-01 -1.838690e+00 100 102 61
6.473230e-02 -5.888096e-01 -1.838667e+00 49 140 45
1.450725e-01 -5.401140e-01 -1.848344e+00 44 78 14
3.182166e-01 -5.183095e-01 -1.839337e+00 152 178 134
-1.810307e-01 -5.279095e-01 -1.961376e+00 136 71 23
-2.355000e-01 -4.869197e-01 -1.973764e+00 142 80 36
-2.252076e-01 -4.766928e-01 -1.968616e+00 128 68 23
-2.586029e-01 -4.687513e-01 -1.972940e+00 144 75 23
-2.464387e-01 -4.699447e-01 -1.979263e+00 140 81 38
6.249184e-01 -4.215276e-01 -1.816148e+00 58 55 46
-4.694733e-01 -4.852205e-01 -2.066919e+00 127 80 38
-1.906785e-01 -4.504988e-01 -1.969602e+00 82 22 2
-1.415380e-01 -4.280947e-01 -1.959302e+00 160 72 42
-1.992297e-01 -4.260442e-01 -1.958655e+00 88 27 6
-1.914366e-01 -4.179425e-01 -1.964976e+00 78 12 1
-1.995977e-01 -4.072319e-01 -1.957335e+00 74 7 1
-4.585881e-02 -3.938282e-01 -1.970813e+00 119 36 21
-3.528611e-01 -3.794724e-01 -1.993218e+00 120 47 4
-3.518811e-01 -3.787800e-01 -1.989486e+00 120 47 4
-1.539266e-01 -3.678869e-01 -1.959276e+00 157 68 40
4.689860e-02 -3.641692e-01 -1.952774e+00 64 2 1
2.576866e-02 -3.545912e-01 -1.954310e+00 70 4 2
-2.688808e-01 -3.440449e-01 -1.963280e+00 106 39 8
5.306366e-02 -3.280783e-01 -1.950200e+00 118 38 28
-2.633120e-01 -3.235615e-01 -1.973034e+00 141 82 18
-2.036426e-01 -3.209102e-01 -1.964085e+00 79 20 0
-1.426430e-01 -3.105393e-01 -1.945503e+00 132 37 12
-5.844691e-02 -2.929660e-01 -1.946899e+00 66 6 7
7.228618e-05 -2.835007e-01 -1.964935e+00 123 41 24
7.760673e-02 -2.810335e-01 -1.960239e+00 113 34 22
-2.973064e-01 -2.770040e-01 -1.954367e+00 144 89 33
-3.472999e-01 -2.813072e-01 -1.988474e+00 110 47 6
-3.472999e-01 -2.813072e-01 -1.988474e+00 110 47 6
-3.443156e-01 -2.735839e-01 -1.984711e+00 111 49 0
4.952637e-01 -2.542460e-01 -1.954021e+00 84 80 66
-1.857530e-01 -2.336053e-01 -1.956309e+00 137 86 20
-2.148850e-01 -2.204791e-01 -1.953560e+00 139 90 22
-3.792940e-02 -2.176183e-01 -1.939709e+00 152 57 32
-9.548662e-02 -2.087545e-01 -1.942987e+00 159 73 39
-1.927850e-01 -2.025244e-01 -1.960017e+00 146 90 24
-3.596606e-01 -1.965261e-01 -1.982945e+00 148 102 44
-3.522530e-01 -1.819345e-01 -1.983368e+00 107 56 2
-3.720302e-01 -1.826299e-01 -1.994469e+00 102 49 0
-3.670483e-01 -1.639504e-01 -1.990505e+00 92 51 4
-4.232947e-02 -1.542796e-01 -1.942783e+00 70 17 0
-1.653383e-01 -1.531577e-01 -1.958197e+00 110 47 4
-3.949478e-01 -1.289828e-01 -1.992836e+00 110 60 0
1.210822e-01 -1.081019e-01 -1.986785e+00 152 92 47
-2.990578e-01 -9.886001e-02 -1.976547e+00 93 39 8
-3.014036e-01 -9.413094e-02 -1.974041e+00 144 96 41
-3.820148e-01 -9.244332e-02 -1.986765e+00 101 57 6
-1.361907e-01 -8.677928e-02 -1.942818e+00 125 40 9
-2.900137e-02 -4.894420e-02 -1.937138e+00 58 12 2
-4.118967e-01 -4.751039e-02 -2.003669e+00 118 66 4
-8.423146e-03 -4.458779e-02 -1.942114e+00 67 13 6
-4.205488e-01 -4.113738e-02 -2.011357e+00 101 53 3
4.723842e-02 -2.227111e-02 -1.946080e+00 61 20 0
-3.955333e-01 -2.318074e-02 -2.003364e+00 157 81 49
-3.908949e-01 -1.975807e-02 -2.000134e+00 126 43 13
-3.683714e-01 -7.078752e-03 -1.993438e+00 123 42 7
-3.666575e-01 -8.076113e-03 -1.987170e+00 123 42 7
1.114776e-01 2.502182e-02 -1.975076e+00 97 50 6
-3.167964e-01 2.383463e-01 -1.924281e+00 43 35 49
-2.433587e-01 3.148092e-01 -2.040425e+00 100 88 93
-2.277438e-01 3.116728e-01 -2.031490e+00 54 42 52
-4.938276e-01 3.335679e-01 -2.093578e+00 97 84 74
-4.553209e-01 4.050913e-01 -2.108625e+00 175 167 121
-7.362259e-02 3.949454e-01 -2.038272e+00 75 65 73
-3.969954e-01 -1.815611e-01 -2.019207e+00 126 72 0
-3.544808e-01 -7.519466e-01 -1.838238e+00 28 111 27
-1.938709e-01 -7.426956e-01 -1.856554e+00 20 100 19
5.167457e-02 -6.334411e-01 -1.842529e+00 28 92 23
-2.293246e-01 -7.700941e-01 -1.880739e+00 168 188 130
8.137035e-01 -4.557045e-01 -1.873875e+00 201 185 140
-2.871384e-01 -7.893597e-01 -1.852386e+00 54 98 33
-2.395932e-02 -1.893347e-01 -1.960379e+00 136 23 3
-1.231075e-01 -3.184208e-01 -1.952570e+00 137 63 24
-1.975497e-01 -3.174960e-01 -1.967093e+00 97 40 3
-5.748793e-02 -1.122484e-01 -1.945377e+00 96 42 11
-4.101607e-01 -4.373907e-03 -2.003155e+00 145 49 11
-4.101607e-01 -4.373907e-03 -2.003155e+00 145 49 11
-3.059271e-01 -7.490491e-01 -1.824142e+00 31 98 40
5.249032e-03 -6.690580e-01 -1.847651e+00 55 75 4
-4.208241e-02 -3.801428e-01 -1.991267e+00 131 30 12
-1.867403e-01 -3.220030e-01 -1.959399e+00 149 92 11
3.522025e-02 -2.951680e-01 -1.962338e+00 66 6 7
-3.116379e-01 -2.852466e-01 -1.967979e+00 93 40 6
5.290955e-02 -2.382913e-01 -1.950139e+00 155 59 34
-6.140019e-02 -9.179334e-02 -1.935122e+00 90 37 6
8.346880e-02 -3.352891e-02 -1.973638e+00 103 52 3
-3.741256e-01 -1.625952e-02 -1.990977e+00 147 48 16
-4.069376e-01 -8.046227e-01 -1.842297e+00 162 191 114
-3.242519e-01 -7.943317e-01 -1.842019e+00 152 169 108
-3.252941e-01 -7.868064e-01 -1.842299e+00 27 80 2
4.387651e-01 -7.382181e-01 -1.741454e+00 36 32 5
2.740710e-01 -6.693798e-01 -1.876593e+00 20 14 2
2.740710e-01 -6.693798e-01 -1.876593e+00 20 14 2
-2.789608e-01 -5.481781e-01 -1.981700e+00 173 115 68
3.602294e-01 -4.566974e-01 -1.824620e+00 150 112 60
5.001520e-01 -4.228246e-01 -1.843072e+00 108 103 81
4.940593e-01 -4.199224e-01 -1.835757e+00 108 103 81
-8.662589e-03 -2.378913e-01 -1.933061e+00 159 69 37
-1.851679e-01 -2.076837e-01 -1.963809e+00 108 46 0
-4.063291e-01 -1.639180e-01 -1.997154e+00 122 70 0
2.378300e-02 -1.266204e-01 -1.961539e+00 82 25 2
-4.096912e-01 -1.244582e-01 -2.000971e+00 118 69 1
1.989276e-02 -7.660351e-02 -1.978703e+00 84 22 0
-1.154058e-01 -5.072612e-02 -1.940750e+00 71 9 4
-1.158086e-01 -5.047106e-02 -1.939035e+00 71 9 4
2.661269e-02 6.586509e-03 -1.952093e+00 171 117 55
-4.372516e-01 3.092624e-01 -2.039212e+00 113 96 92
-4.451274e-01 -7.969361e-01 -1.842701e+00 173 204 146
-3.383221e-01 -7.826482e-01 -1.884116e+00 182 224 160
-2.715161e-01 -7.704103e-01 -1.894047e+00 51 103 46
-2.260424e-01 -6.898823e-01 -1.841021e+00 187 208 170
-5.879482e-02 -6.253620e-01 -1.848933e+00 65 101 54
1.564545e-01 -5.913502e-01 -1.848439e+00 24 80 4
8.702745e-01 -5.392813e-01 -1.799441e+00 44 32 10
-2.393595e-01 -4.819063e-01 -1.966888e+00 100 33 1
-3.545303e-01 -4.857720e-01 -2.009268e+00 152 91 24
-2.036251e-01 -4.291888e-01 -1.958967e+00 143 84 23
-1.553201e-01 -3.498465e-01 -1.957643e+00 167 77 42
-4.166468e-01 -3.351334e-01 -2.026669e+00 120 60 2
2.944197e-02 -2.293178e-01 -1.951975e+00 151 62 34
2.944197e-02 -2.293178e-01 -1.951975e+00 151 62 34
8.511562e-02 -1.409583e-01 -1.975035e+00 155 86 43
-4.196706e-01 -1.384078e-01 -2.005107e+00 112 71 2
-3.272607e-01 -1.311350e-01 -1.969951e+00 154 107 36
-1.316669e-01 -1.053042e-01 -1.943141e+00 180 124 64
-2.744823e-01 -9.670734e-02 -1.960087e+00 155 105 47
-4.733735e-01 -7.641265e-02 -2.043733e+00 144 109 59
-2.402688e-01 5.691600e-02 -1.973925e+00 189 80 38
-3.091821e-01 3.347862e-01 -2.238652e+00 43 43 55
-4.515540e-01 3.312493e-01 -1.998067e+00 67 51 30
3.768706e-01 -8.440116e-01 -1.745597e+00 77 73 44
-4.427185e-01 -8.289021e-01 -1.837337e+00 24 76 2
-2.357718e-01 -7.412261e-01 -1.838721e+00 55 102 56
-8.859546e-02 -6.612277e-01 -1.847325e+00 54 130 58
2.554807e-01 -5.959744e-01 -1.856160e+00 59 53 37
2.532455e-01 -5.456490e-01 -1.833157e+00 40 83 38
2.315576e-01 -5.207586e-01 -1.845737e+00 38 90 6
2.427663e-01 -4.853389e-01 -1.823470e+00 63 113 45
8.604579e-03 -4.924553e-01 -1.959224e+00 128 33 22
9.266475e-03 -4.947419e-01 -1.964446e+00 128 33 22
2.520038e-02 -4.865907e-01 -1.952564e+00 117 31 19
-2.450067e-01 -4.846492e-01 -1.967667e+00 154 91 42
-2.064747e-01 -4.867093e-01 -1.972447e+00 118 47 4
2.467301e-02 -4.776432e-01 -1.948941e+00 119 33 18
-3.666691e-02 -4.013080e-01 -1.966909e+00 136 43 31
-1.376695e-01 -3.841472e-01 -1.960823e+00 173 78 45
2.576792e-02 -3.656773e-01 -1.981162e+00 124 42 28
2.549750e-02 -3.652638e-01 -1.978307e+00 124 42 28
-5.882666e-02 -2.993284e-01 -1.949730e+00 77 3 2
3.818439e-02 -3.011671e-01 -1.970184e+00 76 1 0
5.823813e-02 -2.788385e-01 -1.974423e+00 128 39 25
-3.325293e-01 -2.261334e-01 -1.974578e+00 109 53 4
-8.427007e-02 -2.079418e-01 -1.949369e+00 172 75 40
-1.846060e-01 -1.989092e-01 -1.958953e+00 116 56 2
6.801856e-02 -1.782934e-01 -1.966826e+00 153 64 38
-3.827755e-01 -1.746838e-01 -1.996533e+00 154 103 33
-3.245619e-01 -1.278758e-01 -1.979178e+00 119 70 2
-2.220265e-01 -7.558811e-02 -1.941623e+00 145 81 20
-1.141008e-01 -5.541051e-02 -1.939319e+00 73 14 0
-3.667615e-01 -2.304044e-02 -1.993736e+00 164 85 51
6.052910e-02 -1.440018e-02 -1.932081e+00 147 94 31
1.127442e-01 -1.019757e-03 -1.949281e+00 171 111 57
1.115096e-01 3.178692e-02 -1.973141e+00 121 68 7
-1.345292e-01 9.840377e-02 -1.920404e+00 53 52 64
-1.345292e-01 9.840377e-02 -1.920404e+00 53 52 64
-1.165133e-01 1.074316e-01 -1.939170e+00 13 10 22
-8.882811e-02 2.324202e-01 -1.951545e+00 50 50 62
-3.992513e-02 4.336010e-01 -2.093420e+00 97 84 92
-2.262410e-01 4.259875e-01 -2.090432e+00 113 101 101
-1.762538e-02 2.593623e-02 -1.946867e+00 143 27 2
7.167590e-03 -6.035486e-01 -1.833342e+00 33 135 33
-3.315785e-01 -7.297736e-01 -1.832408e+00 31 92 22
-1.221153e-01 -6.715772e-01 -1.824737e+00 182 191 133
-1.996463e-01 -8.906032e-02 -1.950089e+00 155 88 3
1.692938e-01 1.579745e-01 -2.062946e+00 157 67 20
-2.838987e-02 -3.978147e-01 -1.968025e+00 70 1 2
-3.966407e-01 -1.050022e-01 -2.018846e+00 153 105 28
6.768681e-03 -9.013633e-02 -1.967838e+00 139 76 5
-3.204661e-01 -3.994380e-02 -1.902701e+00 172 103 67
3.059936e-01 -7.204312e-01 -1.816294e+00 21 18 2
1.094922e-01 -5.164603e-01 -2.024492e+00 34 0 0
-2.331516e-01 -3.316824e-01 -1.985843e+00 163 104 27
4.812831e-02 -3.151135e-01 -1.985089e+00 79 0 1
8.853531e-02 -2.755347e-01 -1.982521e+00 84 0 3
-6.269689e-02 -2.110463e-01 -1.957537e+00 167 74 38
-6.269689e-02 -2.110463e-01 -1.957537e+00 167 74 38
1.414792e-01 -1.473279e-01 -2.012880e+00 173 108 66
-2.870402e-01 -5.211346e-02 -1.964953e+00 141 38 7
-6.769855e-02 -3.641503e-01 -1.954956e+00 79 0 4
-2.845331e-01 -2.134091e-01 -1.950904e+00 88 44 0
-1.741780e-01 -2.028867e-01 -1.980424e+00 149 93 26
-4.553399e-01 -5.782137e-03 -2.018597e+00 129 61 13
-5.700790e-02 -3.329250e-03 -1.968771e+00 137 42 2
-8.101165e-02 1.128339e-01 -1.607103e+00 41 43 56
-1.972743e-01 -6.919472e-01 -1.818556e+00 48 122 53
2.595622e-01 -6.866917e-01 -1.859095e+00 44 37 15
-1.200473e-02 -6.206338e-01 -1.817105e+00 56 103 45
1.505694e-01 -5.487752e-01 -1.822780e+00 125 195 112
2.572638e-01 -5.139602e-01 -1.840156e+00 57 118 34
3.568388e-01 -4.587132e-01 -1.827259e+00 144 120 56
1.003292e-01 -5.142837e-01 -2.016872e+00 84 28 21
-1.668744e-01 -4.346891e-01 -1.950903e+00 149 85 22
-4.476270e-01 -3.354004e-01 -2.049939e+00 123 43 0
-1.733687e-01 -2.195139e-01 -1.968729e+00 150 100 32
-4.636731e-01 -1.014874e-01 -2.052399e+00 166 101 53
-7.017465e-02 -5.333879e-02 -1.957432e+00 75 27 8
-3.755094e-01 3.390830e-01 -2.058705e+00 51 36 48
-1.021590e-01 3.563126e-01 -2.078133e+00 61 44 55
-4.126601e-01 -7.977298e-01 -1.817693e+00 21 107 26
1.796494e-02 -4.851806e-01 -2.017954e+00 140 35 15
-9.381738e-02 -3.929115e-01 -1.971181e+00 105 21 12
9.564500e-03 -9.994162e-02 -1.962748e+00 76 18 0
-3.869093e-01 -4.032808e-02 -1.990579e+00 184 139 72
2.037703e-01 -6.032135e-01 -2.013280e+00 62 55 41
3.831723e-01 -4.934710e-01 -1.826449e+00 88 77 60
-1.995388e-01 -4.307797e-01 -1.969523e+00 82 14 0
-2.211919e-01 -3.846859e-01 -1.947028e+00 101 37 5
-2.232166e-01 -3.705499e-01 -1.961716e+00 103 40 3
-1.826532e-01 -2.231860e-01 -1.472682e+00 93 24 15
-1.918744e-02 -1.496579e-01 -1.959746e+00 143 88 23
-8.218355e-02 -7.244376e-01 -1.837213e+00 198 174 134
4.582050e-02 -6.038049e-01 -1.912374e+00 184 161 118
-1.863914e-01 -6.808319e-01 -1.839172e+00 25 120 26
-1.293216e-01 -3.150252e-01 -1.954168e+00 194 113 76
-2.549047e-01 -7.038376e-01 -1.835662e+00 27 113 30
5.276933e-01 -5.855651e-01 -1.674707e+00 72 71 49
4.883561e-01 -6.044229e-01 -1.672006e+00 66 65 46
4.883561e-01 -6.044229e-01 -1.672006e+00 66 65 46
2.550142e-02 -6.196735e-01 -1.821275e+00 19 109 13
1.120181e-01 -5.391595e-01 -1.791459e+00 45 137 33
-4.058748e-01 -7.794684e-01 -1.822778e+00 29 117 4
-3.017452e-01 -7.854290e-01 -1.829825e+00 148 143 90
8.579427e-01 -7.222720e-01 -1.696853e+00 67 62 20
1.529766e-01 -5.674393e-01 -1.802864e+00 33 59 6
3.911662e-01 -2.671743e-01 -2.038969e+00 42 35 20
1.107231e-01 2.517495e-02 -2.020855e+00 116 67 12
-4.558003e-01 -7.994711e-01 -1.820528e+00 28 105 18
-3.597977e-01 -8.016722e-01 -1.824285e+00 128 145 79
-3.790076e-01 -7.870420e-01 -1.817515e+00 25 101 12
3.255727e-01 -6.195697e-01 -1.739250e+00 69 67 52
3.255727e-01 -6.195697e-01 -1.739250e+00 69 67 52
-2.163293e-01 -5.671696e-01 -1.997787e+00 173 107 61
-5.362604e-02 -1.826190e-01 -1.957531e+00 173 121 72
-1.929398e-01 -1.141330e-01 -1.951246e+00 166 110 28
8.500638e-02 -7.340621e-02 -1.978258e+00 120 65 7
-1.045609e-01 3.051990e-01 -2.012241e+00 57 45 69
-4.181076e-01 -8.259840e-01 -1.826244e+00 114 141 79
-4.566637e-01 -7.915940e-01 -1.820463e+00 62 114 23
3.879058e-01 -6.697193e-01 -1.657739e+00 67 67 55
-1.158561e-01 -6.506541e-01 -1.821470e+00 114 201 103
-1.158561e-01 -6.506541e-01 -1.821470e+00 114 201 103
2.125060e-02 -6.045266e-01 -1.818681e+00 94 185 86
6.925574e-02 -5.605071e-01 -1.831360e+00 200 211 168
1.296989e-01 -5.368701e-01 -1.832900e+00 203 223 162
1.856801e-01 -5.151649e-01 -1.849283e+00 23 19 0
2.541302e-01 -4.901928e-01 -1.852538e+00 19 12 0
3.139030e-01 -4.620132e-01 -1.825993e+00 17 82 19
-2.280784e-01 -4.458948e-01 -1.978620e+00 150 78 18
-2.625470e-01 -4.001239e-01 -1.997936e+00 105 34 3
-9.052068e-02 -1.901181e-01 -1.971297e+00 177 116 66
-4.623608e-01 -7.923060e-01 -1.820983e+00 206 220 155
6.094264e-03 -5.797801e-01 -1.807073e+00 88 169 76
6.120502e-02 -5.636237e-01 -1.837702e+00 180 172 132
1.414331e-01 -5.350214e-01 -1.800406e+00 92 173 84
-2.543241e-01 -4.171466e-01 -1.991134e+00 166 104 41
-2.543241e-01 -4.171466e-01 -1.991134e+00 166 104 41
-2.613652e-01 -4.183955e-01 -1.995262e+00 99 30 3
-2.615838e-01 -4.180299e-01 -1.995517e+00 99 30 3
-2.769181e-01 -3.587882e-01 -1.996448e+00 165 98 26
-2.253543e-01 -3.228491e-01 -1.968189e+00 83 20 3
-2.079764e-01 -3.173517e-01 -1.971349e+00 164 107 35
-4.847035e-02 -3.211982e-01 -1.959876e+00 72 0 1
-5.384472e-02 -3.044726e-01 -1.979839e+00 74 0 0
-2.870470e-01 -2.864360e-01 -1.966373e+00 107 53 5
-1.919632e-01 -2.623754e-01 -1.960940e+00 174 128 54
-2.052400e-01 -2.407318e-01 -1.965747e+00 174 123 45
4.302797e-02 -2.467455e-01 -1.973697e+00 158 58 32
-3.969372e-01 -2.269721e-01 -2.019383e+00 168 112 37
-2.639652e-01 -2.219452e-01 -1.973800e+00 95 50 1
-2.864610e-01 -2.158757e-01 -1.964982e+00 91 45 0
-1.010424e-01 -1.647200e-01 -1.963894e+00 100 43 3
-2.737476e-01 -9.957169e-02 -1.962597e+00 181 131 55
-4.576522e-01 -8.006868e-01 -1.814905e+00 135 152 78
-4.064171e-01 -7.821197e-01 -1.823053e+00 44 113 5
-3.297674e-01 -7.369156e-01 -1.826177e+00 44 123 40
-5.343210e-02 -6.161053e-01 -1.836177e+00 81 113 66
3.924514e-01 -5.337791e-01 -1.778923e+00 74 72 57
1.945786e-01 -5.979793e-01 -2.001965e+00 32 20 6
-4.084446e-01 -4.677697e-01 -2.032852e+00 160 106 36
-4.095961e-01 -4.710953e-01 -2.040291e+00 160 106 36
-4.072687e-01 -4.491175e-01 -2.030574e+00 167 107 38
-2.665863e-01 -4.200858e-01 -1.994652e+00 163 85 29
-8.960104e-02 -3.687106e-01 -1.949868e+00 140 49 33
-1.231931e-01 -3.623465e-01 -1.959479e+00 169 75 41
-2.702130e-01 -3.545342e-01 -1.968937e+00 106 37 0
-2.032810e-01 -3.217669e-01 -1.967223e+00 89 27 0
-2.536559e-01 -3.157105e-01 -1.956549e+00 111 56 2
-1.936533e-01 -3.181823e-01 -1.958004e+00 91 31 5
-2.642852e-01 -3.201680e-01 -1.979201e+00 100 38 1
-4.115480e-02 -3.152280e-01 -1.954292e+00 76 3 0
-3.389085e-02 -3.067233e-01 -1.951226e+00 102 7 1
-3.900539e-02 -2.932436e-01 -1.972585e+00 86 3 3
-3.929068e-01 -2.599730e-01 -1.994507e+00 110 63 5
-4.641819e-01 -2.215381e-01 -2.060290e+00 141 81 36
-2.227775e-01 -1.790300e-01 -1.964603e+00 96 44 13
-3.158345e-02 -1.636319e-01 -1.944588e+00 138 79 25
-8.555168e-02 -1.609093e-01 -1.959042e+00 153 94 28
-3.276361e-01 -1.499834e-01 -1.967379e+00 164 107 32
-3.276361e-01 -1.499834e-01 -1.967379e+00 164 107 32
-8.264060e-02 -1.494028e-01 -1.965798e+00 87 29 2
-8.264060e-02 -1.494028e-01 -1.965798e+00 87 29 2
-4.188430e-01 -1.384412e-01 -1.999808e+00 119 75 6
-2.264098e-01 -9.751200e-02 -1.945485e+00 98 41 5
-3.322414e-02 -8.156595e-02 -1.954563e+00 86 22 10
-1.950232e-01 -7.557509e-02 -1.939672e+00 174 120 49
-1.184654e-01 -5.361614e-02 -1.953128e+00 143 87 25
-3.585098e-02 -4.019364e-02 -1.941077e+00 64 15 2
-3.130727e-01 6.615292e-02 -1.956252e+00 174 73 32
-1.232374e-01 3.446300e-01 -2.050459e+00 61 48 58
-1.232374e-01 3.446300e-01 -2.050459e+00 61 48 58
2.190772e-01 -3.401667e-01 -2.122077e+00 207 189 151
-3.713701e-01 -7.294170e-01 -1.798376e+00 164 178 113
-2.230241e-01 -6.911682e-01 -1.787776e+00 185 203 149
-9.834903e-02 -6.210740e-01 -1.816586e+00 30 101 24
4.633302e-01 -4.457073e-01 -1.879638e+00 20 16 1
-6.992799e-02 -1.906900e-01 -1.989077e+00 168 116 66
-1.398507e-03 -3.732912e-04 -1.934358e+00 165 112 42
-2.377525e-01 -3.601048e-01 -1.985143e+00 101 44 1
-2.005128e-01 -1.195121e-01 -1.949448e+00 114 52 16
-5.976407e-02 -9.153559e-02 -1.951121e+00 99 39 6
-4.149169e-01 -7.986606e-02 -2.024610e+00 157 114 36
6.706569e-02 -6.115260e-02 -1.984247e+00 109 51 1
-2.652551e-02 -6.025711e-03 -1.956224e+00 164 110 41
3.429803e-01 -4.625661e-01 -1.840737e+00 18 95 4
-2.351960e-01 -4.386738e-01 -1.987600e+00 93 27 1
-2.610282e-01 -3.923445e-01 -1.979336e+00 109 38 3
-2.313125e-01 -3.524897e-01 -1.982683e+00 157 94 26
-2.604769e-02 -3.084484e-01 -1.975775e+00 143 40 19
2.443136e-01 -3.356274e-01 -2.049906e+00 46 34 25
-1.846700e-01 -2.685778e-01 -1.975890e+00 86 29 10
-1.851640e-01 -2.246705e-01 -1.959673e+00 93 42 7
-1.851640e-01 -2.246705e-01 -1.959673e+00 93 42 7
-3.998236e-01 -1.312171e-01 -2.002560e+00 126 74 1
-2.459985e-01 5.226113e-02 -1.930538e+00 193 83 34
-2.686737e-01 5.785195e-02 -1.937373e+00 220 122 73
-2.686737e-01 5.785195e-02 -1.937373e+00 220 122 73
-3.336824e-02 3.122109e-01 -1.988495e+00 112 97 98
-2.437661e-01 -5.336206e-01 -1.994368e+00 105 41 2
-3.904990e-01 -5.180992e-01 -2.064486e+00 157 99 26
-2.207979e-01 -4.648004e-01 -1.986397e+00 79 14 0
-2.579577e-01 -3.612381e-01 -1.998585e+00 163 103 36
-9.719461e-03 -3.970520e-01 -1.994418e+00 134 38 24
-8.762910e-02 -3.754371e-01 -1.968251e+00 149 59 36
-6.981638e-02 -3.240893e-01 -1.980458e+00 77 4 4
-3.141698e-01 -2.818355e-01 -1.970300e+00 102 49 6
-2.162306e-01 -2.479958e-01 -1.994570e+00 150 85 25
-3.818870e-01 -8.978092e-02 -1.999589e+00 163 112 32
-1.231729e-01 9.605413e-02 -1.918389e+00 42 28 35
9.793102e-01 -6.777000e-01 -1.749224e+00 192 177 138
-2.562695e+00 1.011573e+00 -3.335308e+00 73 93 112
8.621491e-01 -5.368321e-01 -1.798824e+00 40 34 20
-2.566568e+00 8.787340e-01 -3.237866e+00 67 85 99
-2.566568e+00 8.787340e-01 -3.237866e+00 67 85 99
-2.796833e+00 1.098788e+00 -3.301770e+00 147 132 106
-1.100951e-01 -4.262395e-02 -1.941470e+00 144 86 5
-2.649465e+00 1.055847e+00 -3.454913e+00 166 150 126
-2.760146e+00 1.029078e+00 -3.278551e+00 137 126 110
9.489473e-01 -7.570176e-01 -1.744296e+00 176 167 116
-2.306996e-01 3.317492e-01 -2.065181e+00 62 52 76
-2.472862e+00 9.471101e-01 -3.223273e+00 134 128 115
-2.972686e+00 1.059206e+00 -3.446404e+00 158 144 119
6.863634e-01 -5.799762e-01 -1.735463e+00 101 99 72
-3.903303e-01 -4.874292e-02 -1.993494e+00 98 43 3
-1.348544e-01 3.288097e-01 -2.046030e+00 61 48 66
-2.421153e-01 3.227895e-01 -2.039263e+00 61 49 72
-2.421153e-01 3.227895e-01 -2.039263e+00 61 49 72
-2.888449e+00 1.004902e+00 -3.381611e+00 90 79 48
9.365372e-01 -6.331833e-01 -1.737416e+00 29 26 8
1.757674e-01 -5.258331e-01 -1.842944e+00 35 118 35
7.524114e-01 -4.674245e-01 -1.759181e+00 55 42 14
-1.268204e-02 -5.129699e-01 -1.973289e+00 134 36 16
-4.335664e-01 -2.349263e-02 -2.024753e+00 176 109 47
-5.074620e-01 3.398613e-01 -2.121869e+00 34 17 5
1.693297e+00 6.906978e-01 -2.296157e+00 118 107 87
3.766726e-01 -6.479401e-01 -1.782084e+00 77 75 62
-4.013801e-02 -2.042969e-01 -1.976069e+00 179 78 46
9.246648e-01 -6.033675e-01 -1.738754e+00 117 105 66
1.733879e-01 -6.021886e-01 -1.862399e+00 22 68 7
2.290694e-01 -6.198239e-01 -1.893830e+00 19 22 3
2.790802e-01 -5.518736e-01 -1.842988e+00 34 53 30
7.642187e-01 -4.911755e-01 -1.735227e+00 72 67 49
5.377073e-01 -4.801838e-01 -1.818038e+00 61 59 46
3.353215e-01 -4.646231e-01 -1.830214e+00 190 217 143
3.042715e-01 -4.649385e-01 -1.836651e+00 190 211 141
7.815461e-01 -4.554017e-01 -1.846751e+00 90 77 45
-4.125406e-01 -4.631994e-01 -2.012884e+00 178 111 57
1.885156e-01 -3.533762e-01 -1.950071e+00 51 44 36
-1.304453e-01 -3.002113e-01 -1.975453e+00 179 82 46
-4.261454e-01 -2.495483e-01 -2.021447e+00 192 127 73
-3.851453e-01 -1.674410e-01 -2.018953e+00 158 110 34
-2.131162e-01 -1.443504e-01 -1.960219e+00 123 68 0
-1.002951e-01 3.112113e-01 -2.031577e+00 50 37 53
-4.874154e-01 3.827220e-01 -2.109738e+00 65 48 27
2.750586e-01 -5.957396e-01 -1.767508e+00 27 25 13
7.479064e-02 -6.861672e-01 -2.000248e+00 199 175 139
8.045013e-01 -4.022478e-01 -2.423838e+00 31 29 16
3.517655e-01 -4.482497e-01 -1.812025e+00 167 116 68
3.391191e-01 -4.995582e-01 -1.800524e+00 5 7 2
-2.567425e-02 -6.661753e-01 -1.789318e+00 173 156 113
1.524131e-01 -5.037053e-01 -1.824975e+00 40 39 19
8.623918e-01 -7.205513e-01 -1.690315e+00 178 162 126
-4.547918e-02 -5.598908e-01 -1.735676e+00 18 90 15
1.345597e-02 -5.476474e-01 -1.746361e+00 20 93 17
4.947036e-02 -5.664335e-01 -1.811157e+00 16 91 12
1.050625e-01 -5.407651e-01 -1.811657e+00 13 87 11
3.523337e-01 -4.086681e-01 -1.820566e+00 23 23 13
8.630922e-01 -5.098824e-01 -1.912240e+00 17 18 9
-3.870905e-02 -2.538558e-02 -1.966938e+00 145 81 11
3.144289e-01 -5.277267e-01 -1.819200e+00 0 5 0
1.123825e-01 -1.353132e-01 -2.080098e+00 112 58 12
2.036319e-01 -1.436854e-01 -2.186130e+00 157 103 56
-1.591636e-02 -6.201472e-01 -1.768049e+00 173 157 113
-5.781320e-02 -5.375275e-01 -1.751625e+00 37 109 25
2.033139e-01 -5.813939e-01 -1.818428e+00 36 38 20
-5.053128e-01 1.925340e-01 -2.120915e+00 211 197 157
-2.405615e-01 -6.428222e-01 -1.720922e+00 24 91 19
4.235628e-01 -4.793958e-01 -1.599648e+00 73 72 54
4.235628e-01 -4.793958e-01 -1.599648e+00 73 72 54
1.688158e-01 -5.332625e-01 -1.796246e+00 201 218 162
2.998922e-01 -4.884147e-01 -1.801543e+00 123 142 91
9.163117e-01 -6.092138e-01 -1.741578e+00 23 20 3
2.868968e-01 -4.709300e-01 -1.800515e+00 20 93 16
3.169758e-01 -4.651442e-01 -1.837846e+00 197 207 159
3.347090e-01 -4.572842e-01 -1.838878e+00 32 114 29
4.694116e-01 -4.403117e-01 -1.864541e+00 20 9 2
2.633229e-01 -5.355222e-01 -2.334599e+00 101 8 0
3.031141e-01 -5.216616e-01 -2.330747e+00 17 7 1
-7.525116e-02 -5.280810e-02 -1.946595e+00 78 27 1
-7.525116e-02 -5.280810e-02 -1.946595e+00 78 27 1
-6.616577e-02 -1.478456e-01 -1.974811e+00 103 40 11
3.406167e-01 -5.456008e-01 -2.484081e+00 114 29 2
6.637621e-01 -4.560822e-01 -1.935207e+00 71 68 59
6.637621e-01 -4.560822e-01 -1.935207e+00 71 68 59
1.422304e-01 -1.376281e-01 -2.123221e+00 163 112 57
1.266893e-01 -1.291860e-01 -2.104072e+00 87 28 0
1.713789e-01 -1.299670e-01 -2.141762e+00 129 78 21
2.998085e-01 -4.706781e-01 -1.843870e+00 13 29 2
6.603864e-01 -4.278086e-01 -1.929186e+00 101 99 86
-1.572262e-01 -1.677856e-01 -1.977535e+00 168 82 47
1.577471e-01 8.143912e-02 -2.083894e+00 189 140 95
-1.357310e-01 -6.715656e-01 -1.860982e+00 20 84 22
-2.668625e+00 7.340908e-01 -3.013782e+00 49 58 58
-3.256383e-01 -7.620389e-01 -1.880322e+00 20 78 25
9.237203e-01 -5.935065e-01 -1.753836e+00 178 164 126
-3.864333e-03 -7.994138e-02 -1.967393e+00 70 26 1
-2.923005e+00 9.841010e-01 -3.367696e+00 117 106 81
1.928361e-01 -6.017347e-01 -1.849554e+00 101 97 57
-2.555967e-01 -4.672679e-01 -1.980854e+00 89 24 0
-3.665730e-01 -1.604923e-01 -1.997636e+00 95 52 18
9.307980e-01 -6.131775e-01 -1.740616e+00 58 53 22
-1.207285e-01 -5.633526e-02 -1.947232e+00 122 68 19
-1.582990e-01 -6.324095e-01 -1.796383e+00 181 175 138
3.892485e-01 -5.393753e-01 -1.778968e+00 78 76 63
2.703759e-01 -4.910013e-01 -1.808001e+00 46 82 25
2.870560e-01 -4.906116e-01 -1.843730e+00 18 52 1
3.424101e-01 -4.711748e-01 -1.822272e+00 170 192 138
-3.142825e-02 -3.110887e-01 -1.980973e+00 87 3 5
-2.729202e-01 -2.908696e-01 -1.982500e+00 77 19 4
5.336133e-01 -2.264657e-01 -2.109252e+00 81 75 58
-2.668483e-01 5.315556e-02 -1.934765e+00 227 144 102
1.431756e-01 3.384358e-01 -2.040168e+00 126 115 96
-2.998793e+00 9.877580e-01 -3.440037e+00 52 46 36
-3.533102e-01 -8.265997e-01 -1.868753e+00 46 83 33
9.569191e-01 -7.359273e-01 -1.746369e+00 160 147 105
-2.866551e+00 9.567490e-01 -3.288648e+00 129 117 91
-2.731814e+00 1.029486e+00 -3.348819e+00 119 112 87
-2.762777e+00 9.438267e-01 -3.306301e+00 133 122 98
-2.919157e+00 1.009417e+00 -3.432885e+00 95 83 57
-2.791786e+00 9.679180e-01 -3.310402e+00 130 119 92
9.406310e-01 -8.709649e-01 -1.753095e+00 26 21 0
1.412935e-01 -5.208177e-01 -1.825012e+00 84 85 51
-2.945666e-01 -5.573720e-02 -2.005005e+00 151 100 38
-3.260565e-01 -1.275544e-01 -1.968283e+00 144 96 41
-2.415552e+00 9.528166e-01 -3.156090e+00 44 63 69
3.566616e-01 -6.529942e-01 -1.781874e+00 78 78 66
-1.228230e-01 1.112987e-01 -1.970415e+00 96 89 93
-3.362016e-01 -5.039086e-01 -1.992428e+00 141 80 33
-4.168091e-01 -4.650140e-01 -1.977583e+00 119 41 9
-4.173738e-01 -4.660141e-01 -1.979982e+00 119 41 9
5.184546e-01 -4.130022e-01 -1.859884e+00 53 50 41
-3.231488e-01 -1.258554e-01 -1.976200e+00 102 49 0
-1.374375e-01 -3.868591e-01 -1.978303e+00 164 74 47
-1.939497e-01 -1.800938e-01 -1.964032e+00 152 105 45
-3.331000e-01 -9.552500e-02 -1.972114e+00 136 85 29
6.710314e-01 -5.853771e-01 -1.742180e+00 65 58 49
-9.184656e-02 -3.865876e-01 -1.978863e+00 81 2 2
-1.015579e-01 -3.644113e-01 -1.978743e+00 169 83 56
-4.525935e-02 -1.022147e-01 -1.961855e+00 132 72 24
-3.698959e-01 -7.952459e-01 -1.903862e+00 30 94 34
6.810097e-01 -5.500746e-01 -1.711395e+00 78 76 55
3.383263e-02 -3.837873e-01 -2.011652e+00 130 34 12
-1.123538e-01 3.298688e-01 -2.033823e+00 111 97 98
-1.123538e-01 3.298688e-01 -2.033823e+00 111 97 98
-4.838599e-01 -8.792531e-04 -2.060838e+00 148 115 64
-9.096039e-02 4.566912e-01 -2.147632e+00 26 22 39
7.410110e-01 -4.696365e-01 -1.736755e+00 48 42 27
-1.541847e-01 -2.509595e-01 -1.966449e+00 183 97 60
-2.034311e-01 4.022919e-01 -2.056416e+00 82 72 72
-2.376527e-02 -1.598859e-01 -1.977527e+00 85 38 10
-2.334170e-01 -3.305196e-01 -1.984116e+00 163 104 27
-3.448956e-01 -2.288395e-01 -2.000318e+00 90 37 0
-3.448956e-01 -2.288395e-01 -2.000318e+00 90 37 0
7.306174e-02 -3.572217e-01 -2.033345e+00 133 41 29
7.306174e-02 -3.572217e-01 -2.033345e+00 133 41 29
1.824062e-03 -5.662745e-01 -1.786054e+00 116 189 100
-4.037806e-02 -8.102777e-02 -1.961067e+00 154 94 25
4.384082e-03 -4.515844e-02 -1.969012e+00 102 36 0
-5.764397e-02 -7.112423e-01 -1.849989e+00 199 178 135
-3.797113e-01 -7.796919e-01 -1.868006e+00 32 110 28
-1.344884e-01 -6.723454e-01 -1.859807e+00 25 109 24
1.709936e-01 -5.743268e-01 -1.802303e+00 118 104 65
5.109008e-01 -6.422401e-01 -1.705341e+00 63 62 44
6.452707e-01 -5.573128e-01 -1.703360e+00 90 84 60
6.452707e-01 -5.573128e-01 -1.703360e+00 90 84 60
1.053010e-01 -6.143040e-01 -1.832885e+00 56 78 9
1.035398e-01 -5.510118e-01 -1.784521e+00 177 196 140
2.230815e-01 -5.032832e-01 -1.840107e+00 33 117 26
7.470788e-01 -4.690745e-01 -1.745494e+00 55 48 22
3.443166e-01 -4.476118e-01 -1.835568e+00 53 124 39
3.466520e-01 -5.800714e-01 -1.673541e+00 80 79 61
4.815886e-01 -4.936110e-01 -1.800856e+00 64 62 48
3.627264e-01 -4.581746e-01 -1.829117e+00 166 125 66
4.908024e-01 -4.346073e-01 -1.843450e+00 36 29 19
-5.216886e-02 -4.030597e-01 -1.964307e+00 89 2 4
-2.626201e-01 -3.761704e-01 -1.986680e+00 111 40 6
-2.626201e-01 -3.761704e-01 -1.986680e+00 111 40 6
-2.390631e-01 -3.581247e-01 -1.980018e+00 119 58 25
5.617675e-02 -3.432503e-01 -1.990639e+00 86 1 3
5.617675e-02 -3.432503e-01 -1.990639e+00 86 1 3
1.001953e-01 -3.231949e-01 -2.004987e+00 86 0 2
-2.006522e-01 -1.179497e-01 -1.953762e+00 93 32 3
3.363817e-01 -5.803330e-01 -1.681022e+00 76 75 58
6.948854e-01 -5.120836e-01 -1.688256e+00 68 65 50
1.238438e-01 -5.428034e-01 -1.842760e+00 142 160 97
2.418406e-01 -5.427765e-01 -1.844797e+00 31 84 18
2.065245e-01 -5.133400e-01 -1.828503e+00 44 95 4
-4.040820e-02 -5.437488e-01 -1.999899e+00 87 3 1
3.540693e-01 -4.695920e-01 -1.796291e+00 94 69 38
4.995540e-01 -4.778017e-01 -1.796442e+00 75 73 60
3.280632e-01 -4.628976e-01 -1.827893e+00 31 88 10
5.544099e-01 -4.531625e-01 -1.800981e+00 66 64 51
-3.694498e-01 -4.910396e-01 -2.015988e+00 116 59 3
-3.694498e-01 -4.910396e-01 -2.015988e+00 116 59 3
6.026423e-01 -4.386121e-01 -1.814774e+00 67 64 53
6.026423e-01 -4.386121e-01 -1.814774e+00 67 64 53
6.111319e-01 -4.232136e-01 -1.807698e+00 68 66 52
-1.790904e-01 -4.143218e-01 -1.972250e+00 114 41 0
5.093995e-01 -4.070044e-01 -1.849194e+00 55 53 40
