ply
format ascii 1.0
element face 0
property list uchar int vertex_indices
element vertex 931
property float x
property float y
property float z
property uchar diffuse_red
property uchar diffuse_green
property uchar diffuse_blue
end_header
-3.774496e-01 -1.311446e-01 -1.867295e+00 164 117 40
-2.311203e-01 -1.272733e-01 -1.802060e+00 65 0 1
-2.311203e-01 -1.272733e-01 -1.802060e+00 65 0 1
-2.581421e-01 -1.182555e-01 -1.795419e+00 173 121 49
-3.022368e-01 -1.117924e-01 -1.809972e+00 144 43 9
-3.103835e-01 -1.074230e-01 -1.825599e+00 144 44 10
-5.514569e-02 -9.816438e-02 -1.740372e+00 151 98 23
-3.452694e-02 -8.703727e-02 -1.751403e+00 157 103 34
-3.754620e-01 -9.923391e-02 -1.857934e+00 178 134 74
-3.818167e-01 -9.729539e-02 -1.852083e+00 180 133 66
-3.834900e-01 -9.181476e-02 -1.877904e+00 180 133 66
-3.689751e-01 -9.784414e-02 -1.847072e+00 147 49 17
-3.943686e-01 -9.415602e-02 -1.862970e+00 180 129 69
-3.857541e-01 -9.051125e-02 -1.861276e+00 147 50 15
-3.933873e-01 -8.823317e-02 -1.863253e+00 148 57 15
-4.012351e-01 -8.505432e-02 -1.864429e+00 146 61 16
-4.012351e-01 -8.505432e-02 -1.864429e+00 146 61 16
-1.698073e-01 -7.967005e-02 -1.758489e+00 170 119 42
-1.611918e-01 -7.827634e-02 -1.756391e+00 176 126 57
-1.412507e-01 -7.195075e-02 -1.757179e+00 177 130 68
-4.087589e-02 -3.710847e-02 -1.725679e+00 177 124 61
-7.937413e-03 3.790652e-02 -1.725772e+00 134 23 0
-4.583605e-01 8.222219e-02 -1.908505e+00 222 197 160
-1.780404e-01 1.747919e-01 -1.762784e+00 60 47 65
-1.325273e-01 1.715454e-01 -1.734703e+00 55 40 56
-1.539939e-01 1.885123e-01 -1.765827e+00 57 44 63
-1.832305e-01 1.885493e-01 -1.771749e+00 56 44 63
-1.056881e-01 1.821756e-01 -1.732967e+00 53 36 42
-1.059889e-01 1.812441e-01 -1.731300e+00 53 36 42
-1.021859e-01 1.905397e-01 -1.743245e+00 53 36 42
-1.602945e-01 1.778348e-01 -1.743725e+00 119 105 97
-1.602945e-01 1.778348e-01 -1.743725e+00 119 105 97
-4.031963e-02 1.827418e-01 -1.701646e+00 121 106 108
-2.018976e-01 1.984558e-01 -1.784063e+00 114 100 99
-2.045589e-01 1.892025e-01 -1.771509e+00 114 100 99
-2.541446e-02 1.927314e-01 -1.710136e+00 34 20 28
-2.634678e-02 1.905532e-01 -1.706417e+00 34 20 28
-4.322295e-01 2.407113e-01 -1.887353e+00 100 86 91
2.601685e-01 -7.505597e-01 -1.660430e+00 103 87 60
5.226780e-01 -7.326884e-01 -1.602358e+00 39 33 10
2.404029e-01 -7.010376e-01 -1.645243e+00 44 44 34
6.294902e-01 -6.996360e-01 -1.572910e+00 32 29 0
-3.590580e-01 -7.322237e-01 -1.902245e+00 133 154 99
-3.584262e-01 -7.265770e-01 -1.892437e+00 133 154 99
-3.348584e-01 -7.092572e-01 -1.878148e+00 64 92 44
-3.275156e-01 -7.131151e-01 -1.885974e+00 58 77 29
-3.972720e-01 -7.123595e-01 -1.907631e+00 215 227 165
-3.845504e-01 -7.087545e-01 -1.899861e+00 24 106 19
-3.874232e-01 -7.016383e-01 -1.887589e+00 158 219 137
-3.826027e-01 -7.048000e-01 -1.899777e+00 74 161 68
2.374323e-01 -6.387380e-01 -1.629290e+00 69 68 51
2.377414e-01 -6.387828e-01 -1.629491e+00 69 68 51
-2.842131e-01 -7.020518e-01 -1.889728e+00 62 78 20
-2.842131e-01 -7.020518e-01 -1.889728e+00 62 78 20
2.622140e-01 -6.385752e-01 -1.647486e+00 34 31 16
2.670636e-01 -6.284013e-01 -1.628123e+00 84 81 74
2.401720e-01 -6.228028e-01 -1.626513e+00 98 94 67
2.765347e-01 -5.712690e-01 -1.607250e+00 72 70 58
2.754421e-01 -5.707313e-01 -1.606308e+00 72 70 58
-2.025212e-01 -6.058429e-01 -1.813528e+00 63 83 15
2.405155e-01 -5.591197e-01 -1.630727e+00 88 86 73
2.112354e-01 -5.528324e-01 -1.637570e+00 22 19 10
2.210295e-01 -5.549722e-01 -1.649911e+00 78 75 59
-1.612505e-01 -5.545884e-01 -1.739898e+00 136 223 128
-1.399616e-01 -5.854283e-01 -1.817807e+00 136 223 128
2.068963e-01 -5.509750e-01 -1.652767e+00 64 62 47
2.060470e-01 -5.529315e-01 -1.661952e+00 77 75 62
-1.180451e-01 -5.747378e-01 -1.803677e+00 46 93 40
1.697608e-01 -5.479128e-01 -1.684275e+00 15 13 2
-1.464557e-01 -5.637652e-01 -1.807583e+00 205 195 160
5.851980e-01 -5.004447e-01 -1.526517e+00 70 63 53
3.320324e-02 -5.331768e-01 -1.755224e+00 52 73 11
-5.530220e-02 -5.353040e-01 -1.782518e+00 53 144 46
-5.374331e-02 -5.273415e-01 -1.769515e+00 97 170 81
-5.099257e-02 -5.231767e-01 -1.779477e+00 206 222 179
5.834719e-02 -5.177539e-01 -1.740880e+00 36 47 5
5.702230e-02 -5.169873e-01 -1.738571e+00 36 47 5
-4.225294e-02 -5.196016e-01 -1.780774e+00 58 87 35
1.955030e-01 -4.946116e-01 -1.665073e+00 51 48 41
1.621450e-02 -5.047063e-01 -1.747729e+00 61 75 14
-2.236501e-02 -5.013428e-01 -1.756018e+00 54 96 44
-6.146110e-03 -5.010750e-01 -1.757578e+00 23 67 14
9.941314e-02 -4.950847e-01 -1.722015e+00 15 31 1
-3.709343e-03 -4.951119e-01 -1.755938e+00 50 94 30
3.800390e-02 -4.791684e-01 -1.760141e+00 109 99 52
9.921990e-02 -4.653370e-01 -1.721736e+00 52 98 35
1.009082e-01 -4.604571e-01 -1.712505e+00 59 77 20
7.468485e-02 -4.554549e-01 -1.717446e+00 27 75 19
5.549408e-01 -4.358938e-01 -1.563630e+00 211 196 157
1.011082e-01 -4.486467e-01 -1.703219e+00 93 176 76
7.911058e-02 -4.455941e-01 -1.695383e+00 18 74 1
1.500831e-01 -4.468122e-01 -1.698806e+00 41 85 17
-2.400544e-01 -4.730351e-01 -1.897938e+00 183 118 71
-2.545147e-01 -4.711643e-01 -1.899066e+00 182 122 74
1.158653e-01 -4.331232e-01 -1.699184e+00 24 76 22
-2.113147e-01 -4.615868e-01 -1.890984e+00 92 24 1
-1.956516e-01 -4.587638e-01 -1.883276e+00 96 30 0
-9.752636e-02 -4.530573e-01 -1.857112e+00 95 3 0
1.331442e-01 -4.230790e-01 -1.683861e+00 14 79 3
-2.338000e-01 -4.564199e-01 -1.903416e+00 157 96 39
-2.349453e-01 -4.555981e-01 -1.898850e+00 157 96 39
-3.180142e-01 -4.577182e-01 -1.930863e+00 186 125 77
4.071605e-02 -4.442296e-01 -1.844593e+00 81 34 6
1.856529e-01 -4.166443e-01 -1.678047e+00 64 82 19
1.856496e-01 -4.167096e-01 -1.678097e+00 64 82 19
-7.181795e-02 -4.394841e-01 -1.840028e+00 92 1 3
-8.408245e-02 -4.387498e-01 -1.838248e+00 140 41 28
-6.626624e-02 -4.413825e-01 -1.867736e+00 142 45 27
-6.585549e-02 -4.417751e-01 -1.867705e+00 142 45 27
1.817841e-01 -4.062786e-01 -1.670359e+00 187 188 115
-2.303932e-01 -4.307193e-01 -1.889119e+00 97 30 2
-1.873532e-01 -4.250000e-01 -1.867778e+00 115 48 0
-2.329283e-01 -4.253345e-01 -1.882725e+00 101 32 2
1.877995e-01 -3.970417e-01 -1.670727e+00 202 189 129
1.890193e-01 -3.971458e-01 -1.671711e+00 202 189 129
-2.434363e-01 -4.225332e-01 -1.895562e+00 154 88 20
-3.477128e-01 -4.269545e-01 -1.948848e+00 116 57 2
5.000042e-01 -3.828670e-01 -1.599398e+00 53 44 10
-3.117343e-01 -4.224665e-01 -1.922758e+00 161 95 32
-1.889772e-01 -4.117642e-01 -1.868741e+00 116 46 0
-1.890520e-01 -4.116943e-01 -1.868685e+00 116 46 0
4.851122e-01 -3.769504e-01 -1.590412e+00 209 194 150
-2.348441e-01 -4.118033e-01 -1.877716e+00 80 12 0
-2.349849e-01 -4.118646e-01 -1.877370e+00 80 12 0
-2.030204e-01 -4.073008e-01 -1.865200e+00 151 86 28
-2.025755e-01 -4.076839e-01 -1.867536e+00 151 86 28
-3.154342e-01 -4.089979e-01 -1.919372e+00 154 92 28
-3.508614e-01 -4.111432e-01 -1.950107e+00 121 61 5
-2.358475e-01 -4.017046e-01 -1.881340e+00 83 18 2
-2.365976e-01 -4.009157e-01 -1.874985e+00 83 18 2
-1.924044e-01 -3.972139e-01 -1.859084e+00 122 50 0
2.714089e-01 -3.706168e-01 -1.649345e+00 51 42 14
-6.311642e-02 -3.905586e-01 -1.820637e+00 92 2 1
2.776308e-01 -3.679437e-01 -1.637838e+00 122 116 96
2.692705e-01 -3.671285e-01 -1.630730e+00 122 116 96
2.827723e-01 -3.688033e-01 -1.652143e+00 38 31 6
-2.045445e-01 -3.936609e-01 -1.864598e+00 153 87 28
-3.390153e-01 -4.000669e-01 -1.929041e+00 162 101 36
2.839518e-01 -3.694040e-01 -1.664631e+00 80 75 55
2.804077e-01 -3.687981e-01 -1.661832e+00 80 75 55
2.889793e-01 -3.662316e-01 -1.650281e+00 29 22 5
-2.240048e-01 -3.909509e-01 -1.866951e+00 80 14 1
-3.561884e-01 -3.977612e-01 -1.935308e+00 180 117 62
-3.561511e-01 -3.979116e-01 -1.933804e+00 180 117 62
-2.018506e-01 -3.889386e-01 -1.861418e+00 94 23 3
-2.022666e-01 -3.885787e-01 -1.859791e+00 94 23 3
-3.475039e-01 -3.956744e-01 -1.931274e+00 156 103 36
-3.117879e-01 -3.895527e-01 -1.907687e+00 99 37 0
-2.044770e-01 -3.814272e-01 -1.873201e+00 145 79 23
-3.264346e-01 -3.858544e-01 -1.919741e+00 98 36 0
-3.264892e-01 -3.852725e-01 -1.916071e+00 98 36 0
-2.248328e-01 -3.776664e-01 -1.873307e+00 81 11 1
-3.551820e-01 -3.820526e-01 -1.935464e+00 114 56 1
-3.249590e-01 -3.798924e-01 -1.913666e+00 160 97 30
-3.519239e-01 -3.796082e-01 -1.932946e+00 161 102 43
-2.486975e-01 -3.710348e-01 -1.870487e+00 158 97 35
-2.486975e-01 -3.710348e-01 -1.870487e+00 158 97 35
-3.352322e-01 -3.762211e-01 -1.921799e+00 162 100 32
-2.545531e-01 -3.686319e-01 -1.872508e+00 109 35 6
-2.545531e-01 -3.686319e-01 -1.872508e+00 109 35 6
-3.424403e-01 -3.736916e-01 -1.928881e+00 159 101 36
-2.093440e-01 -3.651909e-01 -1.858136e+00 147 83 20
-2.475626e-01 -3.552610e-01 -1.870270e+00 105 39 3
-6.048914e-02 -3.450594e-01 -1.815319e+00 88 0 0
-3.194370e-01 -3.554124e-01 -1.904032e+00 157 91 23
-1.007421e-01 -3.453025e-01 -1.817720e+00 79 1 0
-3.377292e-01 -3.544121e-01 -1.918757e+00 108 52 1
-3.377105e-01 -3.543880e-01 -1.918124e+00 108 52 1
-8.037184e-02 -3.429888e-01 -1.815101e+00 139 40 18
-1.847309e-01 -3.447103e-01 -1.842097e+00 127 42 4
3.013195e-02 -3.381953e-01 -1.813280e+00 131 77 60
-3.481609e-01 -3.499235e-01 -1.922255e+00 105 49 1
-3.483183e-01 -3.500246e-01 -1.923313e+00 105 49 1
-3.384071e-01 -3.477811e-01 -1.909538e+00 162 96 28
-2.532129e-01 -3.426289e-01 -1.867299e+00 161 98 43
-2.531606e-01 -3.426719e-01 -1.867592e+00 161 98 43
-3.552534e-01 -3.474024e-01 -1.926349e+00 109 53 4
-1.299384e-01 -3.365904e-01 -1.824080e+00 85 3 0
-1.299384e-01 -3.365904e-01 -1.824080e+00 85 3 0
-3.613483e-01 -3.418934e-01 -1.927899e+00 111 52 4
-3.549263e-01 -3.414443e-01 -1.920762e+00 166 108 38
3.872948e-01 -3.095663e-01 -1.624848e+00 87 87 69
-2.037654e-02 -3.267592e-01 -1.841913e+00 132 38 22
-1.481812e-01 -3.276901e-01 -1.829785e+00 126 31 1
-2.511859e-01 -3.301200e-01 -1.863703e+00 83 17 0
-2.511859e-01 -3.301200e-01 -1.863703e+00 83 17 0
-2.594544e-01 -3.304688e-01 -1.872979e+00 98 34 6
-1.446766e-01 -3.243679e-01 -1.827057e+00 183 98 61
-1.765770e-01 -3.259829e-01 -1.841621e+00 138 40 5
-2.561536e-01 -3.284217e-01 -1.862610e+00 160 100 37
-2.560525e-01 -3.284531e-01 -1.863783e+00 160 100 37
-2.696866e-01 -3.281930e-01 -1.869955e+00 162 96 27
-2.170127e-01 -3.230779e-01 -1.839952e+00 151 91 20
-2.162502e-01 -3.231527e-01 -1.843628e+00 151 91 20
-6.270827e-02 -3.172774e-01 -1.802214e+00 76 0 0
-2.255743e-02 -3.153208e-01 -1.809205e+00 88 0 2
-2.251867e-02 -3.153675e-01 -1.809332e+00 88 0 2
-2.193958e-01 -3.162319e-01 -1.845751e+00 81 18 0
-2.176908e-01 -3.165816e-01 -1.853568e+00 81 18 0
-2.610120e-01 -3.168174e-01 -1.872801e+00 101 37 3
4.556117e-02 -3.060957e-01 -1.817602e+00 140 119 74
-2.664867e-01 -3.162181e-01 -1.863244e+00 158 94 23
-2.572058e-01 -3.143791e-01 -1.866878e+00 164 106 34
-2.642992e-01 -3.122917e-01 -1.856458e+00 107 41 1
-2.636865e-01 -3.121679e-01 -1.861820e+00 107 41 1
-2.186690e-01 -3.086152e-01 -1.835648e+00 153 96 25
-3.700006e-01 -3.135877e-01 -1.918558e+00 187 120 64
-3.700000e-01 -3.136389e-01 -1.917350e+00 187 120 64
-2.367766e-01 -3.062439e-01 -1.852144e+00 83 21 1
-8.762663e-02 -3.000671e-01 -1.790288e+00 68 1 2
-5.822146e-03 -2.954628e-01 -1.788860e+00 92 2 0
-1.881496e-03 -2.949737e-01 -1.797050e+00 92 2 0
-1.106498e-01 -2.985840e-01 -1.805156e+00 77 0 1
-2.250750e-01 -3.007580e-01 -1.842754e+00 158 99 27
-2.292360e-01 -2.999993e-01 -1.844656e+00 114 51 0
3.819577e-01 -2.778849e-01 -1.656372e+00 65 58 42
-2.052147e-01 -2.982825e-01 -1.845730e+00 120 54 0
-8.010915e-02 -2.904004e-01 -1.804178e+00 78 0 0
-8.987787e-02 -2.910727e-01 -1.807878e+00 76 0 0
-1.217190e-01 -2.890139e-01 -1.803925e+00 140 52 27
-1.205261e-01 -2.889229e-01 -1.807374e+00 140 52 27
8.323072e-02 -2.802138e-01 -1.769094e+00 45 35 25
3.894428e-01 -2.676240e-01 -1.658339e+00 213 199 157
-9.184730e-02 -2.857509e-01 -1.803092e+00 86 0 0
-3.884131e-01 -2.954497e-01 -1.927068e+00 128 61 16
-5.559051e-02 -2.828767e-01 -1.795004e+00 135 47 31
3.974947e-01 -2.654170e-01 -1.670578e+00 47 35 14
3.377819e-02 -2.762992e-01 -1.794754e+00 154 130 85
-8.367389e-02 -2.799313e-01 -1.792505e+00 141 41 27
3.984317e-01 -2.597122e-01 -1.672398e+00 215 200 151
3.829510e-01 -2.598618e-01 -1.666248e+00 58 47 22
-8.448290e-02 -2.739817e-01 -1.808076e+00 67 0 3
-1.058892e-01 -2.753371e-01 -1.804080e+00 88 5 2
4.050995e-01 -2.538219e-01 -1.686967e+00 45 34 14
-3.901183e-01 -2.832303e-01 -1.931819e+00 133 63 21
-3.218147e-01 -2.756159e-01 -1.901623e+00 169 111 40
-2.565925e-02 -2.569700e-01 -1.792285e+00 131 41 28
-5.938753e-03 -2.539509e-01 -1.832185e+00 131 41 28
-2.123525e-01 -2.645588e-01 -1.830462e+00 74 14 2
-2.130419e-01 -2.646722e-01 -1.826849e+00 74 14 2
4.044599e-01 -2.368049e-01 -1.699352e+00 219 205 159
-2.091842e-01 -2.630970e-01 -1.825425e+00 164 114 32
3.873895e-01 -2.354851e-01 -1.702958e+00 59 48 31
-2.189185e-01 -2.600348e-01 -1.829746e+00 169 122 55
-1.429190e-02 -2.501985e-01 -1.791364e+00 130 36 24
-1.429190e-02 -2.501985e-01 -1.791364e+00 130 36 24
-2.255538e-01 -2.592296e-01 -1.840895e+00 165 117 52
-2.263376e-01 -2.596243e-01 -1.836265e+00 165 117 52
-9.201690e-02 -2.533230e-01 -1.780323e+00 155 62 31
-8.820551e-02 -2.525170e-01 -1.789924e+00 155 62 31
-2.330358e-01 -2.570190e-01 -1.833685e+00 99 42 3
-1.432804e-01 -2.530333e-01 -1.792855e+00 174 78 42
-1.432804e-01 -2.530333e-01 -1.792855e+00 174 78 42
-2.137357e-01 -2.495176e-01 -1.831498e+00 72 3 0
-2.294155e-01 -2.451238e-01 -1.833309e+00 168 112 51
-2.298087e-01 -2.454674e-01 -1.830683e+00 168 112 51
-5.064950e-02 -2.378725e-01 -1.783088e+00 156 59 34
-2.336264e-01 -2.427014e-01 -1.836026e+00 92 27 7
1.610760e-01 -2.277864e-01 -1.713023e+00 218 204 177
-4.008597e-01 -2.406986e-01 -1.929090e+00 138 76 32
-2.166151e-01 -2.353015e-01 -1.822293e+00 72 14 2
-2.170523e-01 -2.357304e-01 -1.819606e+00 72 14 2
-3.628876e-01 -2.322564e-01 -1.927026e+00 161 112 41
-2.321331e-01 -2.303197e-01 -1.828497e+00 165 116 46
-2.321331e-01 -2.303197e-01 -1.828497e+00 165 116 46
-2.615005e-01 -2.310202e-01 -1.840831e+00 83 39 0
-1.145834e-01 -2.228470e-01 -1.786893e+00 128 29 0
-3.092134e-01 -2.249613e-01 -1.874622e+00 92 47 0
-1.396346e-01 -2.190302e-01 -1.799589e+00 135 37 2
-3.056013e-02 -2.142284e-01 -1.767781e+00 155 55 32
-2.172445e-01 -2.202364e-01 -1.824364e+00 101 33 1
-1.517021e-01 -2.177735e-01 -1.789764e+00 144 41 6
-2.372606e-01 -2.175569e-01 -1.825362e+00 96 33 1
-9.577615e-03 -2.067343e-01 -1.771083e+00 125 25 0
-2.336683e-01 -2.164001e-01 -1.823056e+00 158 101 28
-1.173043e-01 -2.129007e-01 -1.780224e+00 179 78 46
-3.390269e-01 -2.164272e-01 -1.871992e+00 108 56 6
-3.389535e-01 -2.172302e-01 -1.865716e+00 108 56 6
-4.055835e-01 -2.149590e-01 -1.924552e+00 135 73 26
2.378106e-01 -1.909330e-01 -1.711602e+00 217 204 179
-2.441651e-01 -2.135074e-01 -1.834050e+00 115 56 2
-3.826430e-01 -2.147452e-01 -1.892580e+00 122 73 3
-3.520880e-01 -2.130889e-01 -1.876035e+00 104 57 5
-2.200570e-01 -2.064175e-01 -1.817215e+00 70 12 0
-2.200248e-01 -2.062383e-01 -1.817858e+00 70 12 0
-3.329107e-02 -1.966283e-01 -1.768144e+00 154 56 32
-1.325900e-01 -2.031450e-01 -1.781681e+00 135 39 7
-1.591621e-01 -2.025097e-01 -1.801733e+00 175 111 58
1.228994e-02 -1.929972e-01 -1.766983e+00 178 115 72
-6.022354e-02 -1.963896e-01 -1.760057e+00 160 69 40
-5.547331e-02 -1.945356e-01 -1.770711e+00 160 69 40
-3.888019e-01 -2.033124e-01 -1.897559e+00 186 132 74
-3.888019e-01 -2.033124e-01 -1.897559e+00 186 132 74
-2.318692e-01 -1.990352e-01 -1.819138e+00 93 37 2
-2.323450e-01 -1.993675e-01 -1.817510e+00 93 37 2
-3.277960e-01 -2.006212e-01 -1.856787e+00 155 111 41
-1.819998e-01 -1.970963e-01 -1.796221e+00 189 119 57
-4.081211e-01 -1.973020e-01 -1.904778e+00 170 107 61
-1.380216e-01 -1.896033e-01 -1.788038e+00 150 87 18
-2.455106e-02 -1.804976e-01 -1.774460e+00 158 65 40
1.543247e-02 -1.745208e-01 -1.772491e+00 187 125 81
-1.372091e-01 -1.847378e-01 -1.785933e+00 74 14 11
-1.536749e-01 -1.864688e-01 -1.785452e+00 154 99 35
-1.334778e-01 -1.834720e-01 -1.782481e+00 157 99 26
-1.018243e-01 -1.804638e-01 -1.778427e+00 142 83 29
-1.018243e-01 -1.804638e-01 -1.778427e+00 142 83 29
-1.282450e-01 -1.817138e-01 -1.780846e+00 88 15 1
-1.291351e-01 -1.823188e-01 -1.778076e+00 88 15 1
-1.204341e-01 -1.808745e-01 -1.773245e+00 72 12 1
-3.631354e-01 -1.858580e-01 -1.874314e+00 104 63 9
-3.013093e-01 -1.840707e-01 -1.843790e+00 112 55 3
-3.403791e-01 -1.816394e-01 -1.865202e+00 103 47 1
-1.422060e-01 -1.776424e-01 -1.780600e+00 149 91 25
-1.542570e-01 -1.728833e-01 -1.786907e+00 163 108 51
-1.541256e-01 -1.729500e-01 -1.787362e+00 163 108 51
-2.299773e-01 -1.714054e-01 -1.815786e+00 165 113 33
-2.304306e-01 -1.720895e-01 -1.812792e+00 165 113 33
-1.076046e-01 -1.678509e-01 -1.769755e+00 76 14 1
-1.294571e-01 -1.681406e-01 -1.777847e+00 94 16 0
-1.292582e-01 -1.679418e-01 -1.778444e+00 94 16 0
-1.243350e-01 -1.670841e-01 -1.777607e+00 154 92 31
-2.389575e-01 -1.714612e-01 -1.813791e+00 167 113 36
-2.386669e-01 -1.711190e-01 -1.816425e+00 167 113 36
-1.648877e-02 -1.567028e-01 -1.765827e+00 127 28 0
-3.663613e-01 -1.705368e-01 -1.870696e+00 120 65 1
-3.663226e-01 -1.708586e-01 -1.866914e+00 120 65 1
-3.422270e-01 -1.722646e-01 -1.843451e+00 167 116 36
-3.741025e-02 -1.483971e-01 -1.793355e+00 84 24 2
-3.762504e-02 -1.490148e-01 -1.791936e+00 84 24 2
-2.258997e-01 -1.618103e-01 -1.808357e+00 73 4 0
-2.266911e-01 -1.628674e-01 -1.803591e+00 73 4 0
-6.835557e-02 -1.524570e-01 -1.762744e+00 152 90 37
-3.634396e-01 -1.598450e-01 -1.875201e+00 118 71 0
-6.402856e-02 -1.504666e-01 -1.761901e+00 88 25 0
-2.385262e-01 -1.507616e-01 -1.803751e+00 163 106 30
-2.468672e-01 -1.499251e-01 -1.811324e+00 155 104 23
-8.308418e-03 -1.281246e-01 -1.780142e+00 159 102 43
-2.367663e-01 -1.459678e-01 -1.801033e+00 85 33 0
-2.490596e-01 -1.454393e-01 -1.804499e+00 68 9 1
-2.529871e-01 -1.448377e-01 -1.807469e+00 167 117 44
-4.777326e-03 -1.271549e-01 -1.759926e+00 105 53 1
-3.050776e-02 -1.313005e-01 -1.756987e+00 89 28 1
-2.956963e-01 -1.423537e-01 -1.834762e+00 91 34 4
-1.528429e-01 -1.414744e-01 -1.768027e+00 150 92 25
-2.461213e-01 -1.386198e-01 -1.809461e+00 154 98 29
-3.393309e-01 -1.380665e-01 -1.853883e+00 93 41 0
-3.431553e-01 -1.405821e-01 -1.846038e+00 158 105 34
-2.138702e-01 -1.337136e-01 -1.793128e+00 133 39 2
-4.012500e-01 -1.288873e-01 -1.880431e+00 177 117 53
-4.012500e-01 -1.288873e-01 -1.880431e+00 177 117 53
-3.824735e-01 -1.256666e-01 -1.880413e+00 153 109 36
-4.178493e-01 -1.234797e-01 -1.896526e+00 133 68 23
-5.170554e-02 -1.115942e-01 -1.744821e+00 153 100 32
-4.893473e-02 -1.093034e-01 -1.751209e+00 153 100 32
-2.225427e-01 -1.168011e-01 -1.788889e+00 175 97 39
-4.033261e-01 -1.129847e-01 -1.884598e+00 179 119 57
-4.037750e-01 -1.113844e-01 -1.892631e+00 179 119 57
-2.925574e-01 -1.122873e-01 -1.823664e+00 175 116 48
-2.979046e-01 -1.175476e-01 -1.805921e+00 172 117 50
-3.117832e-01 -1.146163e-01 -1.819944e+00 174 120 51
-2.599247e-01 -1.098775e-01 -1.811203e+00 139 36 0
-1.356178e-01 -1.063708e-01 -1.756126e+00 145 90 17
-1.819319e-01 -1.027650e-01 -1.773458e+00 75 11 1
-2.132335e-02 -8.778475e-02 -1.744847e+00 108 54 1
-9.534536e-02 -8.906845e-02 -1.762011e+00 150 92 37
-1.958892e-01 -9.759616e-02 -1.774869e+00 181 118 53
-1.021943e-01 -8.827183e-02 -1.752965e+00 66 9 4
-8.440990e-02 -8.186079e-02 -1.760938e+00 152 104 45
-1.886469e-01 -9.435255e-02 -1.766488e+00 63 2 0
-1.543344e-01 -8.547712e-02 -1.768399e+00 69 7 0
-1.681396e-01 -8.457681e-02 -1.773228e+00 157 103 36
-1.715884e-01 -8.934288e-02 -1.761102e+00 157 103 36
-1.625090e-01 -8.577273e-02 -1.757400e+00 158 104 44
-1.551797e-01 -8.039631e-02 -1.764000e+00 82 29 2
-1.556036e-01 -8.108719e-02 -1.762189e+00 82 29 2
-1.974778e-02 -6.477132e-02 -1.734679e+00 128 71 5
-8.200593e-02 -5.444867e-02 -1.742530e+00 178 126 61
-7.234984e-02 -5.114089e-02 -1.737962e+00 173 119 57
-4.115832e-01 -5.547985e-02 -1.864485e+00 180 104 65
-4.116391e-01 -5.541334e-02 -1.864934e+00 180 104 65
-5.155187e-03 -1.934662e-02 -1.729193e+00 183 119 75
-1.883739e-01 -2.252438e-02 -1.766437e+00 159 51 5
-1.818141e-01 -6.860972e-03 -1.790499e+00 253 188 140
-1.804154e-01 3.314188e-03 -1.786412e+00 206 115 71
-2.129439e-01 1.119648e-02 -1.754354e+00 56 54 68
-2.129439e-01 1.119648e-02 -1.754354e+00 56 54 68
-1.976228e-01 1.967279e-02 -1.764571e+00 121 116 123
-1.968325e-01 2.123742e-02 -1.767138e+00 121 116 123
-1.913656e-01 1.255053e-02 -1.744514e+00 184 177 184
-1.909323e-01 1.336901e-02 -1.746077e+00 184 177 184
-3.260951e-01 2.218119e-02 -1.815677e+00 71 68 82
-2.232505e-02 6.389551e-02 -1.729709e+00 150 70 42
-3.033617e-02 6.095895e-02 -1.726112e+00 70 3 0
-2.063918e-02 7.427366e-02 -1.722519e+00 101 72 61
-3.255027e-01 -1.718131e-01 -1.336297e+00 46 45 59
-2.611114e-01 -1.183364e-01 -1.394539e+00 45 43 57
-1.531233e-01 1.699391e-01 -1.746163e+00 56 43 58
-2.215377e-01 1.831544e-01 -1.790428e+00 60 49 64
-2.393411e-01 1.714853e-01 -1.779889e+00 56 42 62
-1.755202e-01 1.674528e-01 -1.742852e+00 59 45 61
-3.325898e-01 1.900553e-01 -1.828410e+00 107 97 106
-1.256776e-01 1.938345e-01 -1.754370e+00 124 112 116
-1.276955e-01 1.882808e-01 -1.747066e+00 124 112 116
-3.362082e-01 2.030332e-01 -1.842250e+00 58 45 65
-1.090798e-01 1.896648e-01 -1.740061e+00 61 44 54
-1.090798e-01 1.896648e-01 -1.740061e+00 61 44 54
-4.712930e-01 1.846561e-01 -1.863043e+00 205 187 151
-2.101726e-01 2.023841e-01 -1.790337e+00 115 102 104
-2.104203e-01 1.997436e-01 -1.786532e+00 115 102 104
-3.889605e-01 1.934745e-01 -1.839234e+00 65 47 52
-3.556221e-01 2.094841e-01 -1.846419e+00 58 44 61
-3.557627e-01 2.102113e-01 -1.847528e+00 58 44 61
-3.687287e-01 2.042763e-01 -1.838585e+00 58 45 65
-2.039213e-02 1.941951e-01 -1.697563e+00 215 197 159
-2.084595e-02 2.190221e-01 -1.721001e+00 63 48 43
-1.923938e-02 2.213111e-01 -1.723155e+00 63 48 43
-3.744717e-01 2.365262e-01 -1.834732e+00 32 23 47
-3.471277e-01 2.514019e-01 -1.835512e+00 28 24 43
-2.676146e-01 2.835240e-01 -1.836137e+00 46 34 35
-2.710402e-01 2.682722e-01 -1.813776e+00 172 158 154
1.169970e+00 6.121522e-01 -1.581037e+00 58 52 32
-3.845437e-01 -7.209840e-01 -1.883782e+00 158 163 122
-3.379610e-01 -7.009318e-01 -1.868375e+00 156 177 130
-4.001584e-01 -7.102952e-01 -1.901668e+00 154 144 99
-3.134289e-01 -6.973811e-01 -1.885231e+00 45 116 47
-3.754980e-01 -6.949670e-01 -1.902277e+00 147 173 90
-2.740353e-01 -6.870291e-01 -1.866252e+00 150 156 92
-3.403023e-01 -6.954687e-01 -1.908371e+00 62 154 68
2.667689e-01 -6.219273e-01 -1.628069e+00 76 73 59
2.726605e-01 -6.185362e-01 -1.627823e+00 69 66 49
2.675059e-01 -5.692728e-01 -1.608682e+00 65 64 50
2.772593e-01 -5.732275e-01 -1.616536e+00 65 64 50
-1.957442e-01 -6.131579e-01 -1.838406e+00 201 232 147
2.148082e-01 -5.509097e-01 -1.610342e+00 33 31 19
2.178853e-01 -5.528653e-01 -1.639630e+00 88 86 73
6.131956e-01 -5.246197e-01 -1.518683e+00 135 126 76
1.665842e-01 -5.488573e-01 -1.685798e+00 68 66 53
-6.398996e-02 -5.570006e-01 -1.785564e+00 59 106 43
-1.061438e-01 -5.505386e-01 -1.802023e+00 59 93 52
-4.317372e-02 -5.386207e-01 -1.767934e+00 126 209 117
-1.005344e-01 -5.452141e-01 -1.800506e+00 201 195 166
3.073710e-02 -5.403645e-01 -1.764852e+00 137 137 79
-5.594100e-02 -5.391034e-01 -1.782981e+00 15 120 17
-8.403312e-02 -5.407333e-01 -1.797008e+00 65 96 49
4.631779e-01 -4.654188e-01 -1.535491e+00 75 71 59
-1.193888e-02 -5.028927e-01 -1.763482e+00 72 107 57
-1.500589e-02 -5.011566e-01 -1.764939e+00 174 170 133
3.412559e-02 -4.945523e-01 -1.739789e+00 23 118 18
1.071331e-01 -4.914399e-01 -1.717736e+00 91 104 65
1.079231e-01 -4.916253e-01 -1.718879e+00 91 104 65
2.199471e-01 -4.804366e-01 -1.660280e+00 96 94 81
2.224546e-01 -4.810577e-01 -1.662677e+00 96 94 81
9.408672e-02 -4.881438e-01 -1.719686e+00 29 73 10
2.281131e-01 -4.752707e-01 -1.654759e+00 82 80 66
4.209373e-02 -4.789726e-01 -1.736633e+00 91 155 62
4.905205e-02 -4.786602e-01 -1.735716e+00 188 212 124
1.147216e-01 -4.722224e-01 -1.710308e+00 48 103 43
1.492680e-01 -4.688981e-01 -1.700394e+00 66 81 58
2.457742e-01 -4.607620e-01 -1.652248e+00 57 55 43
2.458906e-01 -4.607146e-01 -1.652343e+00 57 55 43
1.269822e-01 -4.656358e-01 -1.701466e+00 132 161 102
1.281867e-01 -4.631659e-01 -1.698375e+00 23 71 5
1.179923e-01 -4.627334e-01 -1.698745e+00 160 184 124
8.840983e-02 -4.607173e-01 -1.716505e+00 180 220 141
1.109658e-01 -4.595494e-01 -1.722315e+00 171 199 126
6.869165e-02 -4.565831e-01 -1.727666e+00 157 181 116
9.340982e-02 -4.520927e-01 -1.706736e+00 44 88 6
2.676642e-01 -4.417597e-01 -1.642142e+00 58 56 44
1.142686e-01 -4.490590e-01 -1.697674e+00 51 110 43
7.679701e-02 -4.509348e-01 -1.727488e+00 22 18 0
1.725195e-01 -4.440059e-01 -1.696744e+00 154 184 124
1.412287e-01 -4.380598e-01 -1.692894e+00 66 80 19
2.116861e-01 -4.314896e-01 -1.674059e+00 89 78 60
1.437440e-01 -4.311215e-01 -1.691780e+00 51 106 25
2.905029e-01 -4.200145e-01 -1.625404e+00 93 91 78
1.407514e-01 -4.286939e-01 -1.692025e+00 138 190 103
-2.300637e-01 -4.583232e-01 -1.892363e+00 105 39 2
-2.304403e-01 -4.579465e-01 -1.889941e+00 105 39 2
-2.001141e-01 -4.558435e-01 -1.883600e+00 152 89 30
-2.398634e-01 -4.571766e-01 -1.893307e+00 107 40 4
-2.392104e-01 -4.579784e-01 -1.898243e+00 107 40 4
-2.396500e-01 -4.572474e-01 -1.893002e+00 107 40 4
1.946327e-01 -4.245258e-01 -1.675198e+00 181 208 155
-1.912805e-01 -4.533896e-01 -1.874713e+00 102 37 1
-1.976784e-01 -4.532868e-01 -1.876509e+00 94 30 0
2.037278e-01 -4.241105e-01 -1.678586e+00 108 113 70
-2.035600e-01 -4.543004e-01 -1.886003e+00 125 58 2
-2.035600e-01 -4.543004e-01 -1.886003e+00 125 58 2
-2.415827e-01 -4.560791e-01 -1.905413e+00 153 88 24
-2.315226e-01 -4.520701e-01 -1.888687e+00 108 43 4
-2.323570e-01 -4.506835e-01 -1.881248e+00 108 43 4
2.070848e-01 -4.216646e-01 -1.673481e+00 98 75 37
-2.394552e-01 -4.522576e-01 -1.894618e+00 116 47 8
1.953657e-01 -4.196735e-01 -1.672841e+00 186 194 137
-7.044345e-02 -4.465147e-01 -1.854282e+00 139 45 30
8.310315e-02 -4.498565e-01 -1.864489e+00 140 118 88
-7.718676e-02 -4.420517e-01 -1.846452e+00 101 5 2
1.964177e-01 -4.121723e-01 -1.666345e+00 180 168 119
-3.356202e-01 -4.564674e-01 -1.969602e+00 178 106 56
-1.038253e-01 -4.395371e-01 -1.853521e+00 146 56 37
1.882205e-01 -4.120416e-01 -1.672824e+00 104 123 61
1.810947e-01 -4.122885e-01 -1.675389e+00 199 221 148
-2.207832e-01 -4.333401e-01 -1.880478e+00 145 80 23
-2.087782e-01 -4.338768e-01 -1.885405e+00 122 48 3
-1.952019e-01 -4.297792e-01 -1.865829e+00 102 34 2
-2.242744e-01 -4.323027e-01 -1.884159e+00 92 30 0
-1.950515e-01 -4.267027e-01 -1.871274e+00 96 29 3
-2.361719e-01 -4.273745e-01 -1.888683e+00 156 95 40
-2.500053e-01 -4.271147e-01 -1.887357e+00 154 84 28
-3.017648e-01 -4.317225e-01 -1.919621e+00 102 42 2
1.819959e-01 -3.974230e-01 -1.681428e+00 76 118 53
-4.047507e-02 -4.164384e-01 -1.828574e+00 88 6 6
-1.969385e-01 -4.177602e-01 -1.870691e+00 96 27 2
-1.975109e-01 -4.174473e-01 -1.866233e+00 96 27 2
-2.191465e-01 -4.186011e-01 -1.874023e+00 86 17 2
-2.268867e-01 -4.182710e-01 -1.877852e+00 89 27 1
-2.382679e-01 -4.135101e-01 -1.883664e+00 157 93 42
-3.330299e-01 -4.163479e-01 -1.920858e+00 116 59 10
-5.147345e-02 -4.054521e-01 -1.824911e+00 89 1 2
-3.378313e-01 -4.169435e-01 -1.954708e+00 153 99 37
3.679998e-01 -3.719928e-01 -1.602004e+00 75 73 60
3.750048e-01 -3.724874e-01 -1.606821e+00 75 73 60
-3.548129e-01 -4.127064e-01 -1.956125e+00 178 111 57
-6.215876e-02 -3.958052e-01 -1.834110e+00 134 37 21
3.623117e-01 -3.661785e-01 -1.595243e+00 70 68 56
-2.466008e-01 -3.999683e-01 -1.883841e+00 155 84 25
-3.894585e-01 -4.091891e-01 -2.006514e+00 138 93 51
2.873067e-01 -3.678968e-01 -1.660749e+00 74 71 53
-2.425371e-01 -3.866404e-01 -1.868236e+00 97 27 3
-3.073111e-01 -3.913389e-01 -1.913413e+00 159 94 41
-3.073845e-01 -3.908717e-01 -1.908650e+00 159 94 41
2.986300e-01 -3.608646e-01 -1.656521e+00 71 68 58
2.982961e-01 -3.608381e-01 -1.656286e+00 71 68 58
-3.041293e-01 -3.895058e-01 -1.912713e+00 113 46 4
-3.451046e-01 -3.837639e-01 -1.934414e+00 160 100 40
-3.492793e-01 -3.697652e-01 -1.929267e+00 164 105 39
3.573716e-01 -3.361723e-01 -1.635646e+00 91 89 77
-2.292910e-01 -3.568388e-01 -1.855442e+00 103 42 6
-1.109803e-01 -3.498517e-01 -1.811958e+00 141 42 22
-3.228235e-01 -3.586498e-01 -1.910609e+00 108 48 1
-1.277129e-01 -3.479856e-01 -1.817003e+00 154 62 44
-1.254723e-01 -3.484986e-01 -1.825092e+00 154 62 44
-1.296736e-01 -3.460546e-01 -1.825097e+00 98 12 4
-1.665836e-01 -3.482161e-01 -1.847112e+00 180 82 47
-2.150358e-01 -3.475203e-01 -1.853364e+00 96 29 1
-7.721140e-02 -3.396296e-01 -1.807080e+00 129 36 19
-7.441270e-02 -3.399692e-01 -1.815559e+00 129 36 19
-3.567688e-01 -3.517424e-01 -1.921950e+00 160 107 36
-3.572395e-01 -3.521130e-01 -1.934604e+00 160 107 36
-1.021671e-01 -3.387290e-01 -1.809148e+00 87 11 4
-1.381663e-01 -3.372332e-01 -1.824746e+00 91 0 0
-1.357268e-01 -3.373906e-01 -1.833223e+00 91 0 0
-2.114121e-01 -3.401926e-01 -1.859358e+00 159 96 34
-9.138285e-02 -3.326103e-01 -1.818779e+00 136 43 28
-1.089958e-01 -3.325686e-01 -1.837075e+00 141 54 34
-1.012726e-01 -3.302799e-01 -1.816075e+00 82 2 1
-4.703087e-02 -3.267241e-01 -1.809865e+00 80 1 0
-6.306447e-02 -3.267363e-01 -1.810162e+00 95 6 2
-2.564637e-02 -3.212429e-01 -1.786271e+00 95 2 2
-1.757180e-01 -3.268225e-01 -1.827198e+00 140 53 17
-3.604050e-01 -3.337044e-01 -1.924826e+00 124 62 3
-3.604050e-01 -3.337044e-01 -1.924826e+00 124 62 3
-4.871213e-02 -3.210295e-01 -1.806441e+00 79 1 0
-2.044927e-02 -3.189369e-01 -1.820376e+00 131 37 24
-1.874755e-01 -3.241490e-01 -1.843433e+00 126 48 5
-6.454478e-02 -3.179762e-01 -1.809001e+00 135 46 28
-2.112904e-01 -3.231431e-01 -1.843783e+00 158 99 25
8.696498e-02 -3.135964e-01 -1.796201e+00 51 44 36
4.219922e-01 -3.004364e-01 -1.654020e+00 60 54 41
-6.957788e-02 -3.154975e-01 -1.803803e+00 104 3 4
-3.646091e-01 -3.264853e-01 -1.929391e+00 116 56 1
-4.699990e-02 -3.119416e-01 -1.797801e+00 95 9 5
-2.534211e-01 -3.180299e-01 -1.860076e+00 99 35 1
-1.545028e-01 -3.139423e-01 -1.835569e+00 126 34 1
-2.170669e-01 -3.153631e-01 -1.838100e+00 150 92 48
-3.830177e-01 -3.229304e-01 -1.943608e+00 133 56 13
3.914785e-01 -2.936557e-01 -1.642083e+00 57 53 42
-2.502963e-01 -3.162969e-01 -1.857724e+00 161 105 46
-2.224995e-01 -3.137364e-01 -1.851497e+00 159 101 32
-2.546078e-01 -3.119450e-01 -1.851598e+00 107 45 8
-3.696008e-02 -3.017565e-01 -1.790475e+00 89 3 0
-1.578652e-01 -3.031854e-01 -1.833603e+00 135 45 11
-2.547386e-01 -3.070047e-01 -1.857895e+00 152 95 28
-2.449564e-01 -3.055783e-01 -1.853794e+00 85 28 0
-3.639910e-01 -3.098209e-01 -1.922081e+00 167 104 32
-3.894194e-01 -3.108898e-01 -1.948821e+00 163 99 55
-1.284823e-01 -3.005550e-01 -1.811572e+00 74 1 1
3.909239e-02 -2.941726e-01 -1.805949e+00 151 129 87
-2.519692e-01 -3.043068e-01 -1.854678e+00 99 45 3
-8.863165e-02 -2.979510e-01 -1.802560e+00 83 0 0
-2.649175e-01 -3.035191e-01 -1.857376e+00 99 42 1
-1.414474e-01 -2.971762e-01 -1.809591e+00 144 41 25
-1.608249e-01 -2.938063e-01 -1.848319e+00 132 48 12
-1.437611e-01 -2.944503e-01 -1.836167e+00 181 87 53
-1.430755e-01 -2.944063e-01 -1.837911e+00 181 87 53
-9.738058e-02 -2.907817e-01 -1.798424e+00 150 55 45
-9.625069e-02 -2.909547e-01 -1.801618e+00 150 55 45
-1.350179e-01 -2.907440e-01 -1.817221e+00 136 40 24
-1.003628e-01 -2.890919e-01 -1.799549e+00 101 6 6
-3.691563e-01 -2.976982e-01 -1.907481e+00 128 69 1
-1.297606e-01 -2.871241e-01 -1.808018e+00 79 3 2
-1.197828e-01 -2.844131e-01 -1.801999e+00 71 0 0
-5.862586e-02 -2.810853e-01 -1.798095e+00 72 0 0
-1.711917e-01 -2.849137e-01 -1.822217e+00 179 82 46
-4.895963e-02 -2.791534e-01 -1.790705e+00 84 0 0
-7.710723e-02 -2.803945e-01 -1.797228e+00 89 1 0
-2.706620e-01 -2.874256e-01 -1.862226e+00 83 22 1
-2.691025e-01 -2.845913e-01 -1.853106e+00 165 105 41
-5.394299e-02 -2.744101e-01 -1.792982e+00 78 1 1
3.921150e-01 -2.545513e-01 -1.672238e+00 216 203 152
-2.957894e-01 -2.799476e-01 -1.868495e+00 95 41 8
-7.385840e-02 -2.716047e-01 -1.792953e+00 87 0 0
-3.167113e-01 -2.784291e-01 -1.902362e+00 82 22 0
2.258789e-01 -2.577529e-01 -1.753028e+00 29 26 14
-1.948510e-01 -2.685415e-01 -1.830590e+00 131 45 7
-1.284947e-01 -2.663374e-01 -1.804714e+00 183 83 53
-5.799139e-02 -2.613147e-01 -1.798916e+00 86 3 1
-3.917059e-01 -2.715063e-01 -1.932798e+00 133 60 15
2.327167e-01 -2.486314e-01 -1.721874e+00 66 65 47
3.988566e-01 -2.403604e-01 -1.687408e+00 216 199 156
3.539158e-02 -2.520988e-01 -1.796729e+00 146 120 75
-1.002243e-01 -2.574314e-01 -1.798146e+00 167 64 36
-2.349139e-01 -2.618706e-01 -1.848957e+00 155 102 25
-4.003937e-01 -2.624482e-01 -1.936909e+00 141 84 38
-3.536182e-01 -2.627667e-01 -1.891557e+00 158 105 37
-3.971662e-01 -2.622307e-01 -1.942043e+00 167 97 54
-2.234171e-01 -2.581273e-01 -1.828936e+00 87 29 10
-2.279534e-01 -2.534086e-01 -1.816567e+00 149 90 10
-5.515035e-02 -2.424334e-01 -1.785808e+00 158 66 39
-1.688519e-01 -2.366356e-01 -1.946147e+00 201 113 77
-3.957877e-01 -2.467878e-01 -1.919693e+00 135 62 19
-3.752182e-02 -2.316405e-01 -1.784451e+00 156 61 36
-3.767592e-02 -2.318496e-01 -1.783437e+00 156 61 36
-2.754710e-01 -2.365217e-01 -1.847203e+00 152 98 22
-5.998357e-02 -2.280462e-01 -1.778894e+00 154 64 37
-2.351408e-01 -2.327183e-01 -1.833179e+00 100 42 3
-2.351408e-01 -2.327183e-01 -1.833179e+00 100 42 3
-2.222681e-01 -2.307727e-01 -1.825665e+00 178 131 60
-1.210142e-01 -2.268713e-01 -1.779777e+00 171 82 48
-3.543699e-01 -2.323581e-01 -1.885855e+00 104 53 0
-1.819786e-02 -2.196592e-01 -1.770406e+00 152 58 33
-1.109667e-01 -2.244206e-01 -1.783996e+00 167 70 38
-2.367398e-01 -2.288445e-01 -1.827831e+00 96 37 4
-2.367439e-01 -2.288513e-01 -1.828078e+00 96 37 4
-3.637342e-01 -2.260938e-01 -1.912442e+00 111 60 5
-3.813565e-01 -2.274193e-01 -1.903862e+00 137 85 10
-3.141764e-01 -2.257606e-01 -1.861354e+00 167 123 55
-3.141958e-01 -2.257506e-01 -1.861575e+00 167 123 55
-3.205789e-01 -2.188982e-01 -1.872757e+00 163 110 33
-6.814852e-02 -2.104151e-01 -1.771336e+00 159 65 39
-1.074200e-01 -2.111680e-01 -1.783991e+00 180 85 55
-1.124696e-01 -2.127767e-01 -1.781073e+00 123 23 4
-6.453383e-02 -2.067963e-01 -1.773626e+00 119 23 1
-2.376160e-01 -2.142010e-01 -1.824462e+00 105 46 6
-2.373771e-01 -2.140257e-01 -1.825864e+00 105 46 6
2.291554e-01 -1.926166e-01 -1.691968e+00 215 198 163
-3.378218e-01 -2.119436e-01 -1.873800e+00 156 100 22
-3.572494e-01 -2.095283e-01 -1.881686e+00 163 114 43
-3.825137e-01 -2.092071e-01 -1.897042e+00 155 113 40
-8.142770e-02 -2.012227e-01 -1.769686e+00 120 21 0
-1.692180e-01 -2.049838e-01 -1.794254e+00 180 108 51
-3.514188e-01 -2.086787e-01 -1.874633e+00 153 101 23
-5.983555e-02 -1.993330e-01 -1.768889e+00 163 62 36
-3.279735e-01 -2.043374e-01 -1.871469e+00 128 71 4
-2.396633e-01 -2.026985e-01 -1.824447e+00 77 28 2
-2.387105e-01 -2.018486e-01 -1.832426e+00 77 28 2
-3.088967e-01 -2.040866e-01 -1.846634e+00 153 103 25
-3.008053e-01 -2.008183e-01 -1.852487e+00 107 55 3
-3.824279e-01 -1.968780e-01 -1.912878e+00 162 115 43
-3.027040e-01 -1.989288e-01 -1.841056e+00 106 56 4
-4.125086e-01 -1.972492e-01 -1.917147e+00 139 94 45
-3.356714e-01 -1.948377e-01 -1.877464e+00 156 114 42
-4.042110e-01 -1.944295e-01 -1.914252e+00 129 55 11
-1.419999e-01 -1.894388e-01 -1.790225e+00 91 27 0
-3.799016e-01 -1.888990e-01 -1.890103e+00 129 73 1
-3.801409e-01 -1.881789e-01 -1.895006e+00 129 73 1
-1.146095e-01 -1.836134e-01 -1.774520e+00 72 12 0
-1.136108e-01 -1.832249e-01 -1.777870e+00 72 12 0
-2.950039e-01 -1.878063e-01 -1.843597e+00 121 56 2
-1.231633e-01 -1.809036e-01 -1.780870e+00 152 91 26
-1.079576e-01 -1.811044e-01 -1.773191e+00 70 15 1
-3.216295e-01 -1.839543e-01 -1.853967e+00 119 59 1
-3.217078e-01 -1.839856e-01 -1.853697e+00 119 59 1
-3.584057e-01 -1.836645e-01 -1.873419e+00 113 68 5
-3.613721e-01 -1.829863e-01 -1.864573e+00 162 114 46
-8.956687e-02 -1.731194e-01 -1.769652e+00 152 97 49
-8.956687e-02 -1.731194e-01 -1.769652e+00 152 97 49
-1.506840e-01 -1.750608e-01 -1.784915e+00 84 24 5
-2.236985e-01 -1.766919e-01 -1.809596e+00 95 35 2
-9.269303e-02 -1.700573e-01 -1.770671e+00 84 22 10
-4.128917e-01 -1.730513e-01 -1.915369e+00 145 77 31
-1.512159e-01 -1.714063e-01 -1.783951e+00 77 14 3
-1.520303e-01 -1.721841e-01 -1.781022e+00 77 14 3
-2.338329e-01 -1.739511e-01 -1.815360e+00 115 60 1
-3.462281e-01 -1.750671e-01 -1.864443e+00 161 107 35
-3.424274e-01 -1.752860e-01 -1.860275e+00 126 69 5
-3.424634e-01 -1.734564e-01 -1.869754e+00 126 69 5
-1.340529e-01 -1.684147e-01 -1.779660e+00 163 96 31
-9.616157e-02 -1.667934e-01 -1.762147e+00 141 81 22
-3.910965e-01 -1.685455e-01 -1.901184e+00 123 74 9
-2.357536e-01 -1.703393e-01 -1.809514e+00 110 50 2
-2.761124e-01 -1.705040e-01 -1.825684e+00 129 70 4
-2.761124e-01 -1.705040e-01 -1.825684e+00 129 70 4
-2.442344e-01 -1.704703e-01 -1.809327e+00 112 50 4
-2.884945e-01 -1.702683e-01 -1.835538e+00 115 64 0
-3.739761e-01 -1.688765e-01 -1.880427e+00 125 73 1
-3.379624e-01 -1.688188e-01 -1.857405e+00 114 62 2
-3.380408e-01 -1.675291e-01 -1.863660e+00 114 62 2
-3.192289e-01 -1.667776e-01 -1.849337e+00 119 69 3
-1.158915e-01 -1.597418e-01 -1.777335e+00 145 84 18
-3.275518e-01 -1.656476e-01 -1.849936e+00 165 119 44
-3.277137e-01 -1.664456e-01 -1.845825e+00 165 119 44
-3.603624e-01 -1.560342e-01 -1.888972e+00 155 109 31
-9.593452e-03 -1.486813e-01 -1.771874e+00 180 113 65
-7.571658e-03 -1.473047e-01 -1.775804e+00 180 113 65
-3.311370e-01 -1.623484e-01 -1.859818e+00 120 74 3
-2.458607e-01 -1.597138e-01 -1.819595e+00 84 18 0
-3.848786e-01 -1.587986e-01 -1.886528e+00 124 72 2
-2.422432e-01 -1.572711e-01 -1.813675e+00 160 102 41
-2.420272e-01 -1.568971e-01 -1.814536e+00 160 102 41
-7.199447e-02 -1.499278e-01 -1.762123e+00 83 18 2
-2.496999e-01 -1.584310e-01 -1.808888e+00 168 111 59
-6.908466e-02 -1.495601e-01 -1.760271e+00 148 85 32
-2.471139e-01 -1.557708e-01 -1.806903e+00 96 35 9
-2.526191e-01 -1.554097e-01 -1.815552e+00 88 21 10
-2.527426e-01 -1.551838e-01 -1.815594e+00 88 21 10
-1.758393e-01 -1.461782e-01 -1.809996e+00 149 94 28
-2.154640e-01 -1.512536e-01 -1.802990e+00 183 118 60
-1.198477e-01 -1.475324e-01 -1.768735e+00 108 40 1
-1.190952e-01 -1.468716e-01 -1.771261e+00 108 40 1
-8.948818e-02 -1.385834e-01 -1.770398e+00 142 81 24
-2.659101e-01 -1.480735e-01 -1.814056e+00 151 98 27
-2.828375e-01 -1.477857e-01 -1.820995e+00 99 38 11
-2.686223e-01 -1.429660e-01 -1.829668e+00 88 35 0
-3.873366e-01 -1.438242e-01 -1.885069e+00 130 82 5
-2.629564e-01 -1.440777e-01 -1.817914e+00 75 20 2
-2.794472e-01 -1.445583e-01 -1.822095e+00 166 120 52
-3.741141e-01 -1.405283e-01 -1.884824e+00 138 87 22
-2.726068e-01 -1.434431e-01 -1.822959e+00 158 110 46
-2.726068e-01 -1.434431e-01 -1.822959e+00 158 110 46
-1.457140e-02 -1.296236e-01 -1.750727e+00 153 99 37
-3.084540e-01 -1.413251e-01 -1.839662e+00 102 49 2
-3.084760e-01 -1.419685e-01 -1.837515e+00 102 49 2
-2.999703e-01 -1.447923e-01 -1.821619e+00 154 104 40
-1.761767e-01 -1.392059e-01 -1.783225e+00 153 95 38
-2.679326e-01 -1.428257e-01 -1.810749e+00 161 109 52
-3.143069e-01 -1.415409e-01 -1.838512e+00 96 40 3
-3.348531e-01 -1.421274e-01 -1.842258e+00 152 99 32
-3.347711e-01 -1.422199e-01 -1.842122e+00 152 99 32
-1.803615e-01 -1.390475e-01 -1.779932e+00 69 6 0
-3.210819e-03 -1.255606e-01 -1.754739e+00 178 114 63
-2.713380e-01 -1.418961e-01 -1.809553e+00 101 41 5
-1.257783e-01 -1.328469e-01 -1.764988e+00 75 11 0
-1.240869e-01 -1.314257e-01 -1.770116e+00 75 11 0
-3.662476e-01 -1.354337e-01 -1.869623e+00 153 105 32
-3.655375e-01 -1.307260e-01 -1.865587e+00 121 74 6
-3.826258e-01 -1.327098e-01 -1.869112e+00 119 71 7
-3.592484e-01 -1.293991e-01 -1.858648e+00 95 47 1
-1.219105e-01 -1.254216e-01 -1.757617e+00 83 22 9
-2.171915e-01 -1.268289e-01 -1.797785e+00 183 105 54
-2.410619e-01 -1.259843e-01 -1.806161e+00 77 16 1
-2.403485e-01 -1.233767e-01 -1.815545e+00 77 16 1
-7.832110e-02 -1.167346e-01 -1.755280e+00 150 86 33
-1.781725e-01 -1.215434e-01 -1.780938e+00 168 112 65
-1.790653e-01 -1.227103e-01 -1.777300e+00 168 112 65
-3.729777e-01 -1.202111e-01 -1.868983e+00 161 107 42
-2.552691e-01 -1.207223e-01 -1.808184e+00 74 13 0
-2.433213e-01 -1.231059e-01 -1.792545e+00 97 33 5
-1.783040e-01 -1.152324e-01 -1.788583e+00 92 31 0
-1.793313e-01 -1.168934e-01 -1.783574e+00 92 31 0
-2.500487e-01 -1.225699e-01 -1.796451e+00 89 34 1
-2.234103e-02 -1.045281e-01 -1.743778e+00 110 52 0
4.348642e-03 -9.718342e-02 -1.749101e+00 178 115 73
9.387851e-03 -9.422145e-02 -1.757580e+00 178 115 73
-3.993288e-01 -1.112239e-01 -1.883002e+00 120 66 4
1.009587e-02 -9.539091e-02 -1.752298e+00 115 63 16
-3.738875e-01 -1.073754e-01 -1.857797e+00 164 104 37
-3.850918e-01 -1.054526e-01 -1.870494e+00 86 33 2
-1.623210e-02 -9.340706e-02 -1.743183e+00 129 72 6
-1.689690e-02 -8.976013e-02 -1.750823e+00 153 100 33
-3.880902e-01 -1.049925e-01 -1.859666e+00 162 114 49
-2.904133e-01 -1.086000e-01 -1.803175e+00 187 98 63
-2.933239e-01 -1.022986e-01 -1.823164e+00 131 51 14
-3.858060e-01 -9.959989e-02 -1.870163e+00 103 50 5
-3.851358e-01 -1.020913e-01 -1.862478e+00 103 50 5
-3.968645e-01 -1.002779e-01 -1.869834e+00 110 58 8
-3.681490e-01 -1.017823e-01 -1.851711e+00 170 123 63
-9.605913e-02 -9.474148e-02 -1.749339e+00 92 27 1
-9.373320e-02 -9.234181e-02 -1.754294e+00 92 27 1
-1.012665e-01 -9.181679e-02 -1.758822e+00 66 8 4
-3.907168e-01 -9.946769e-02 -1.858405e+00 121 79 6
-3.908402e-01 -9.765477e-02 -1.865393e+00 121 79 6
-3.150215e-02 -8.533981e-02 -1.745609e+00 155 101 32
-1.236247e-01 -9.210963e-02 -1.758273e+00 72 13 7
-9.462890e-02 -8.843737e-02 -1.747202e+00 98 36 0
-9.462890e-02 -8.843737e-02 -1.747202e+00 98 36 0
-1.959923e-01 -9.213986e-02 -1.774411e+00 176 110 34
-3.654579e-01 -9.370766e-02 -1.845387e+00 178 104 68
-1.570930e-02 -7.674553e-02 -1.743502e+00 128 69 5
-1.896842e-01 -9.015194e-02 -1.776487e+00 146 88 30
-2.532103e-02 -8.032624e-02 -1.734754e+00 156 103 36
-1.955597e-02 -7.629153e-02 -1.744741e+00 156 103 36
-1.662314e-01 -8.956766e-02 -1.767272e+00 93 31 0
-4.231694e-01 -8.452729e-02 -1.889525e+00 130 65 19
-8.395792e-02 -8.084346e-02 -1.752153e+00 73 26 8
-8.008987e-02 -8.137466e-02 -1.743559e+00 77 32 3
-6.151506e-02 -7.276884e-02 -1.759962e+00 159 112 61
-1.663040e-01 -8.626622e-02 -1.759748e+00 97 33 7
-1.864977e-01 -8.442837e-02 -1.774052e+00 76 21 0
-3.741384e-01 -8.875075e-02 -1.842311e+00 179 95 58
-3.749915e-01 -8.465281e-02 -1.853791e+00 179 95 58
-1.736711e-01 -8.297687e-02 -1.771134e+00 86 26 6
-1.413578e-01 -8.182107e-02 -1.756467e+00 151 94 29
-6.242460e-02 -7.345932e-02 -1.744957e+00 81 32 0
-1.481032e-01 -7.996830e-02 -1.760314e+00 80 27 10
-1.483696e-01 -8.017498e-02 -1.759185e+00 80 27 10
-1.653134e-01 -8.216917e-02 -1.758125e+00 105 47 9
-1.630700e-01 -7.934848e-02 -1.764558e+00 105 47 9
-3.620061e-01 -8.416453e-02 -1.827300e+00 184 81 48
-1.751969e-01 -7.668677e-02 -1.768802e+00 163 104 25
-6.183743e-02 -7.155655e-02 -1.735849e+00 145 91 31
-1.643692e-01 -7.498522e-02 -1.766785e+00 164 110 42
-1.541496e-01 -6.676921e-02 -1.772050e+00 128 37 2
-3.599698e-01 -7.814226e-02 -1.820395e+00 182 84 47
-3.599698e-01 -7.814226e-02 -1.820395e+00 182 84 47
-2.871063e-02 -5.516684e-02 -1.743960e+00 110 53 0
-5.994189e-02 -4.409875e-02 -1.738336e+00 172 122 55
-2.790429e-01 -2.187567e-02 -1.806213e+00 197 81 39
-2.860617e-01 -2.158319e-02 -1.807126e+00 206 99 55
-3.042013e-01 -2.375413e-02 -1.800700e+00 239 145 101
-1.814475e-01 -5.612638e-03 -1.774555e+00 186 114 78
-3.585610e-03 2.287641e-03 -1.723059e+00 145 83 40
8.590187e-04 6.875270e-03 -1.730213e+00 145 83 40
-3.410599e-01 -1.488698e-02 -1.810824e+00 193 90 49
-1.609570e-01 8.970638e-03 -1.787988e+00 222 150 120
-1.728629e-01 8.182305e-03 -1.785180e+00 131 28 9
-1.688136e-01 4.048720e-03 -1.773372e+00 132 30 9
-2.009629e-01 8.940299e-03 -1.750091e+00 39 32 38
-3.382936e-03 3.759473e-02 -1.726394e+00 177 89 46
-1.808379e-01 1.618097e-02 -1.746808e+00 89 83 98
-1.925848e-01 2.093818e-02 -1.761017e+00 16 10 20
-1.994724e-01 2.034674e-02 -1.758746e+00 14 12 26
-3.354340e-01 2.333197e-02 -1.818272e+00 79 77 90
-2.350449e-02 6.601240e-02 -1.718637e+00 82 25 5
-1.950882e-02 8.146676e-02 -1.722570e+00 30 18 23
-3.412674e-01 1.212970e-01 -1.805482e+00 54 53 67
-1.395795e-01 1.749290e-01 -1.750479e+00 57 44 61
-1.564452e-01 1.718921e-01 -1.751595e+00 111 100 110
-1.540826e-01 1.769383e-01 -1.756372e+00 111 100 110
-2.154474e-01 1.683081e-01 -1.768145e+00 56 44 55
-2.448890e-01 1.730285e-01 -1.784121e+00 58 47 63
-2.594820e-01 1.832838e-01 -1.805543e+00 117 103 111
-2.589104e-01 1.899348e-01 -1.814834e+00 117 103 111
-1.685759e-01 1.766487e-01 -1.753519e+00 62 47 61
-1.370746e-01 1.817948e-01 -1.747134e+00 63 49 66
-1.502417e-01 1.845954e-01 -1.756444e+00 121 108 118
-1.116920e-01 1.791750e-01 -1.731738e+00 112 96 101
-1.900462e-01 1.878452e-01 -1.772325e+00 120 108 119
-1.942810e-01 1.877135e-01 -1.774244e+00 60 49 62
-1.949407e-01 1.841093e-01 -1.769277e+00 60 49 62
-1.607987e-01 1.945662e-01 -1.769576e+00 124 104 106
-2.018527e-01 1.866541e-01 -1.774114e+00 58 46 60
-1.175240e-01 1.796827e-01 -1.731895e+00 113 99 105
-1.722913e-01 1.885188e-01 -1.764357e+00 122 108 110
-1.762950e-01 1.914372e-01 -1.770134e+00 63 47 58
-3.515996e-01 1.873342e-01 -1.828848e+00 56 40 52
-3.510538e-01 1.919819e-01 -1.834537e+00 56 40 52
-2.100996e-01 1.853080e-01 -1.772155e+00 66 54 61
-2.284406e-01 1.972021e-01 -1.793544e+00 46 36 49
-2.436193e-01 1.967088e-01 -1.798136e+00 50 38 48
-2.428431e-01 1.976153e-01 -1.798694e+00 50 38 48
-2.483130e-01 1.957877e-01 -1.799085e+00 51 37 44
-2.375420e-01 1.924068e-01 -1.789367e+00 29 18 35
-1.819431e-01 2.022058e-01 -1.782188e+00 112 97 101
-1.819431e-01 2.022058e-01 -1.782188e+00 112 97 101
-3.537035e-01 2.006017e-01 -1.840376e+00 112 99 116
-3.538500e-01 2.008872e-01 -1.840964e+00 112 99 116
-1.320981e-01 1.848733e-01 -1.737757e+00 59 46 55
-1.242528e-01 2.049042e-01 -1.762881e+00 59 46 55
-2.328773e-01 2.046265e-01 -1.800713e+00 108 96 106
-3.485259e-01 1.917828e-01 -1.822750e+00 61 47 62
-1.663150e-01 2.066965e-01 -1.774864e+00 65 50 57
-1.671027e-01 2.042226e-01 -1.771687e+00 65 50 57
-1.825000e-01 2.034443e-01 -1.775475e+00 65 52 64
-1.826422e-01 2.032059e-01 -1.775448e+00 65 52 64
-2.085361e-01 2.164568e-01 -1.803867e+00 62 48 61
-2.540959e-01 1.999208e-01 -1.795929e+00 69 52 60
-1.798425e-01 1.274009e-01 -1.670622e+00 116 101 100
-4.625543e-01 1.964739e-01 -1.857814e+00 103 84 82
-3.185123e-02 2.046382e-01 -1.707768e+00 109 94 87
-2.600806e-02 2.048765e-01 -1.697662e+00 110 93 69
-4.638845e-01 2.238704e-01 -1.875055e+00 197 182 142
-4.888761e-02 1.956388e-01 -1.679577e+00 87 72 50
-4.484319e-01 2.406191e-01 -1.876363e+00 199 186 145
-1.340974e-01 2.950874e-01 -1.804898e+00 37 30 46
-1.337012e-01 2.978223e-01 -1.808568e+00 37 30 46
-2.949475e-01 2.955290e-01 -1.861764e+00 129 118 125
-1.373774e-01 2.919526e-01 -1.796841e+00 85 76 86
-1.502362e-01 2.815175e-01 -1.787702e+00 100 88 96
1.713378e-01 -2.952956e-01 -1.964777e+00 199 177 138
2.344206e-01 -3.942279e-01 -1.663256e+00 162 118 71
2.344206e-01 -3.942279e-01 -1.663256e+00 162 118 71
2.375085e-01 -5.561514e-01 -2.044308e+00 114 93 59
-2.188822e-01 -1.442233e-01 -1.794689e+00 169 110 49
1.982822e-02 -4.637666e-01 -1.692177e+00 188 203 140
1.106645e-01 -4.310810e-01 -1.684760e+00 7 80 9
1.581295e-01 -4.101061e-01 -1.675147e+00 22 88 20
1.773001e-01 -4.042101e-01 -1.672023e+00 22 84 10
1.065479e-01 -4.296263e-01 -1.693365e+00 198 209 157
1.854533e-01 -4.206282e-01 -1.664913e+00 163 174 125
1.323677e-01 -4.176155e-01 -1.687046e+00 30 115 30
-2.558608e-01 -1.218235e-01 -1.788948e+00 149 89 23
-1.180743e-01 -9.323684e-02 -1.765526e+00 85 32 6
-1.544673e-01 -7.890393e-02 -1.756057e+00 146 85 27
1.554424e-01 -6.294738e-01 -1.680606e+00 98 90 64
1.074536e-01 -4.364202e-01 -1.677402e+00 26 96 17
2.800915e-01 -3.749604e-01 -1.654422e+00 124 116 90
-1.237257e-01 -2.884231e-01 -1.852203e+00 82 2 0
-3.017862e-01 -2.813472e-01 -1.884594e+00 98 47 1
7.911867e-02 -3.163788e-01 -1.880164e+00 212 193 156
5.949329e-01 -6.462441e-01 -1.540020e+00 186 177 131
4.029358e-01 -4.711643e-01 -1.527367e+00 92 90 69
-3.096388e-02 -4.842617e-01 -1.712935e+00 15 71 12
4.716415e-02 -4.785488e-01 -1.680698e+00 27 35 12
-2.177388e-01 -4.589027e-01 -1.908687e+00 101 43 0
-6.971994e-02 -3.550200e-01 -1.860394e+00 82 0 0
-4.155516e-02 -3.447817e-01 -1.867273e+00 127 38 23
-1.082586e-01 -3.339400e-01 -1.850712e+00 93 12 5
-1.451762e-01 -3.271777e-01 -1.848784e+00 130 40 6
-2.091901e-01 -2.626570e-01 -1.843816e+00 90 40 2
-3.648886e-01 -2.244252e-01 -1.916266e+00 114 63 2
