ply
format ascii 1.0
element face 0
property list uchar int vertex_indices
element vertex 939
property float x
property float y
property float z
property uchar diffuse_red
property uchar diffuse_green
property uchar diffuse_blue
end_header
-1.219706e-01 -2.510720e-01 -1.181732e+00 42 52 4
-1.751559e-01 -6.304722e-01 -1.767555e+00 28 71 2
7.050021e-01 -6.174694e-01 -1.658018e+00 175 166 112
-1.187344e-01 -2.209868e-01 -1.140350e+00 168 194 134
6.962547e-01 -6.048719e-01 -1.650614e+00 177 169 121
5.010714e-01 -5.412781e-01 -1.653048e+00 73 72 50
5.021375e-01 -5.419018e-01 -1.653979e+00 73 72 50
4.583556e-02 -4.763701e-01 -1.849277e+00 139 107 77
-3.363786e-01 -4.384998e-01 -1.869312e+00 100 50 15
-3.462375e-01 -4.343804e-01 -1.873731e+00 93 40 6
-3.462375e-01 -4.343804e-01 -1.873731e+00 93 40 6
-2.250656e-02 -4.376554e-01 -1.837026e+00 65 2 2
-3.395558e-01 -4.200080e-01 -1.867437e+00 95 41 3
-3.395558e-01 -4.200080e-01 -1.867437e+00 95 41 3
-2.482145e-01 -4.106248e-01 -1.840641e+00 89 24 0
-3.511640e-01 -4.118271e-01 -1.868161e+00 87 35 0
-2.269407e-01 -4.073403e-01 -1.836018e+00 133 69 28
-3.622581e-01 -3.940930e-01 -1.873727e+00 96 46 4
-3.622581e-01 -3.940930e-01 -1.873727e+00 96 46 4
-1.927310e-01 -3.899955e-01 -1.831898e+00 136 73 20
-1.931833e-01 -3.605059e-01 -1.823188e+00 133 71 18
-1.933042e-01 -3.623141e-01 -1.832960e+00 133 71 18
-8.814023e-02 -3.394382e-01 -1.829036e+00 63 0 3
1.174170e-02 -3.233623e-01 -1.839863e+00 112 36 24
1.174170e-02 -3.233623e-01 -1.839863e+00 112 36 24
-1.871675e-01 -3.087639e-01 -1.829159e+00 95 28 1
-2.321190e-01 -3.068013e-01 -1.832342e+00 82 31 0
-2.322517e-01 -3.075998e-01 -1.834509e+00 82 31 0
-1.100469e-01 -2.992189e-01 -1.820562e+00 70 1 0
-4.663577e-02 -2.417851e-01 -1.807114e+00 142 56 36
-4.445046e-02 -2.434900e-01 -1.823638e+00 142 56 36
2.308790e-03 -2.437711e-01 -1.822709e+00 139 50 32
2.327581e-03 -2.437654e-01 -1.822751e+00 139 50 32
-3.302831e-01 -2.048445e-01 -1.853915e+00 139 93 29
-3.669556e-01 -1.997561e-01 -1.880019e+00 90 45 1
-3.669556e-01 -1.997561e-01 -1.880019e+00 90 45 1
-3.082631e-01 -1.972859e-01 -1.850641e+00 135 86 27
-3.210231e-01 -1.763077e-01 -1.849286e+00 140 95 27
-6.552110e-02 -1.703620e-01 -1.829030e+00 122 66 13
-3.413231e-01 -1.549576e-01 -1.861558e+00 143 95 30
-3.520044e-01 -1.498344e-01 -1.855695e+00 134 90 28
-3.471035e-01 -1.275146e-01 -1.860823e+00 100 58 1
-6.488627e-02 -1.290088e-01 -1.811949e+00 128 66 21
-1.197343e-01 -1.108497e-01 -1.814789e+00 68 17 5
-1.198706e-01 -1.112606e-01 -1.814383e+00 68 17 5
-3.653700e-01 -9.468151e-02 -1.866684e+00 139 100 33
-3.094453e-01 -7.262290e-02 -1.843844e+00 127 37 8
-6.643216e-02 -8.211873e-02 -1.814525e+00 128 77 28
-6.643216e-02 -8.211873e-02 -1.814525e+00 128 77 28
-3.160265e-01 -7.005030e-02 -1.847439e+00 124 36 6
-3.223175e-01 -6.908818e-02 -1.839613e+00 126 39 8
-1.164253e-01 -6.556488e-02 -1.804918e+00 146 88 22
-1.161238e-01 -6.550222e-02 -1.805238e+00 146 88 22
-4.277878e-01 6.389768e-03 -1.948279e+00 132 93 47
4.270068e-02 -3.192466e-02 -1.813276e+00 156 104 54
4.270068e-02 -3.192466e-02 -1.813276e+00 156 104 54
-3.185159e-01 2.409488e-01 -1.907721e+00 56 44 52
1.554653e+00 5.037339e-01 -2.152963e+00 110 98 76
3.578786e-01 -8.394727e-01 -1.679119e+00 16 13 0
3.440515e-01 -8.151180e-01 -1.682799e+00 62 62 50
2.626556e-01 -7.833123e-01 -1.690642e+00 19 16 2
3.691874e-01 -7.416477e-01 -1.657023e+00 85 85 75
3.791462e-01 -7.524489e-01 -1.668112e+00 85 85 75
6.845914e-01 -7.695350e-01 -1.668039e+00 165 157 111
-4.581058e-01 -7.211724e-01 -1.795323e+00 160 149 104
-3.798165e-01 -7.184593e-01 -1.788204e+00 133 150 95
-3.798165e-01 -7.184593e-01 -1.788204e+00 133 150 95
-3.556913e-01 -7.026165e-01 -1.767894e+00 132 145 95
-4.523144e-01 -7.119570e-01 -1.792839e+00 205 217 154
6.842501e-01 -7.297204e-01 -1.669346e+00 70 68 47
-4.032294e-01 -6.916904e-01 -1.786089e+00 59 141 55
-2.971406e-01 -6.932658e-01 -1.783456e+00 49 68 9
3.015486e-01 -6.566283e-01 -1.665967e+00 72 67 48
2.612642e-01 -6.405490e-01 -1.675575e+00 51 51 43
2.547153e-01 -6.330817e-01 -1.665994e+00 51 51 43
-1.250280e-01 -6.167148e-01 -1.763445e+00 143 156 105
-1.230620e-01 -2.204649e-01 -1.138851e+00 190 177 146
2.725934e-01 -5.889571e-01 -1.673302e+00 91 91 79
-1.477587e-01 -5.925441e-01 -1.766419e+00 132 204 120
-1.478685e-01 -5.916367e-01 -1.764811e+00 132 204 120
-6.395110e-02 -5.612527e-01 -1.755671e+00 19 36 1
6.848517e-01 -5.708608e-01 -1.660954e+00 186 171 137
6.735346e-01 -5.646277e-01 -1.656493e+00 187 171 138
2.749242e-02 -5.599455e-01 -1.749397e+00 43 52 1
-1.716745e-03 -5.549140e-01 -1.749509e+00 24 70 20
1.538284e-01 -5.392606e-01 -1.756885e+00 19 14 3
3.579710e-02 -5.234000e-01 -1.748554e+00 34 47 4
-7.254760e-03 -5.187815e-01 -1.760421e+00 159 152 116
6.444224e-01 -5.305639e-01 -1.681421e+00 53 44 20
7.098408e-02 -4.944052e-01 -1.745062e+00 8 50 0
6.202370e-01 -5.056699e-01 -1.689676e+00 45 34 11
5.574299e-01 -4.790228e-01 -1.650671e+00 63 56 46
1.398029e-01 -4.788745e-01 -1.737766e+00 25 77 2
-1.883985e-01 -4.802455e-01 -1.832084e+00 152 83 44
-2.119331e-01 -4.744741e-01 -1.825785e+00 162 101 57
7.429744e-02 -4.948337e-01 -1.841079e+00 108 88 59
1.663125e-01 -4.591333e-01 -1.734971e+00 23 63 8
5.335160e-01 -4.513914e-01 -1.655938e+00 47 37 15
-8.725979e-02 -4.653127e-01 -1.834249e+00 71 3 1
2.310588e-01 -4.463904e-01 -1.730663e+00 28 40 2
-2.942904e-01 -4.503756e-01 -1.856277e+00 78 15 1
5.884003e-01 -4.628614e-01 -1.727092e+00 190 178 137
5.793436e-01 -4.606805e-01 -1.724136e+00 45 36 15
1.988823e-01 -4.356505e-01 -1.740226e+00 17 16 0
-3.209513e-01 -4.414881e-01 -1.862832e+00 82 28 0
-1.971556e-02 -4.448442e-01 -1.839588e+00 113 29 18
-2.089349e-01 -4.294102e-01 -1.833283e+00 138 76 29
-2.489391e-01 -4.303468e-01 -1.849643e+00 82 24 3
-3.577335e-01 -4.215878e-01 -1.877327e+00 139 86 32
-3.577335e-01 -4.215878e-01 -1.877327e+00 139 86 32
-3.783096e-01 -4.248599e-01 -1.892420e+00 160 97 51
-3.773408e-01 -4.238797e-01 -1.888552e+00 160 97 51
-3.233254e-01 -4.113438e-01 -1.860831e+00 82 19 1
-2.022707e-01 -4.082771e-01 -1.832047e+00 134 68 19
-1.890132e-01 -3.985732e-01 -1.829407e+00 101 32 4
-3.383813e-01 -3.993871e-01 -1.865416e+00 140 78 29
-2.018860e-01 -3.925419e-01 -1.828958e+00 134 71 23
-2.839199e-01 -3.918045e-01 -1.848904e+00 82 17 1
-3.696104e-01 -3.877382e-01 -1.876430e+00 95 40 0
-3.295641e-01 -3.938914e-01 -1.897245e+00 80 20 0
-3.090074e-01 -3.815873e-01 -1.859566e+00 139 77 32
-2.515000e-01 -3.784898e-01 -1.839533e+00 92 25 0
-2.218406e-01 -3.741365e-01 -1.832010e+00 61 3 0
-2.504394e-01 -3.687726e-01 -1.837547e+00 86 15 2
-2.504314e-01 -3.687249e-01 -1.837105e+00 86 15 2
-2.037680e-01 -3.678129e-01 -1.848794e+00 129 68 21
-1.975152e-01 -3.582261e-01 -1.825881e+00 65 5 0
-2.514088e-01 -3.551447e-01 -1.840979e+00 87 21 2
-2.514312e-01 -3.550793e-01 -1.841528e+00 87 21 2
-1.216717e-01 -3.539720e-01 -1.814797e+00 75 4 4
-3.212240e-01 -3.523461e-01 -1.858246e+00 86 21 0
-3.376423e-01 -3.473968e-01 -1.865207e+00 81 25 9
-2.082544e-01 -3.386168e-01 -1.828210e+00 141 81 35
-1.113404e-01 -3.412035e-01 -1.820437e+00 70 4 2
-1.113404e-01 -3.412035e-01 -1.820437e+00 70 4 2
-3.645186e-01 -3.353631e-01 -1.876712e+00 91 38 0
-2.514770e-01 -3.328229e-01 -1.836690e+00 89 18 2
-2.515331e-01 -3.330582e-01 -1.837713e+00 89 18 2
-3.656454e-01 -3.274693e-01 -1.878715e+00 143 91 26
2.324122e-03 -3.372519e-01 -1.823029e+00 119 31 18
-5.132899e-03 -3.368778e-01 -1.839126e+00 59 0 0
7.672343e-02 -3.451627e-01 -1.859276e+00 22 10 4
-6.146937e-02 -3.123756e-01 -1.819351e+00 75 5 6
4.650795e-01 -3.320034e-01 -1.794457e+00 32 24 7
-6.315095e-02 -2.973547e-01 -1.813553e+00 63 1 1
-8.799126e-02 -2.873991e-01 -1.827055e+00 60 3 6
4.856627e-01 -3.157261e-01 -1.843385e+00 198 186 138
1.073688e-02 -2.796061e-01 -1.870855e+00 113 34 24
4.697806e-01 -2.995133e-01 -1.860154e+00 192 177 146
-3.237693e-01 -2.614920e-01 -1.866891e+00 152 96 41
-3.275612e-01 -2.634728e-01 -1.882858e+00 152 96 41
1.096508e-02 -2.655058e-01 -1.804246e+00 116 31 23
-3.760780e-01 -2.540947e-01 -1.877514e+00 164 106 55
-3.760780e-01 -2.540947e-01 -1.877514e+00 164 106 55
-2.080441e-01 -2.470815e-01 -1.826720e+00 83 27 4
-1.867281e-01 -2.422182e-01 -1.825995e+00 60 1 0
-3.746411e-01 -2.359663e-01 -1.872140e+00 165 107 55
-3.746411e-01 -2.359663e-01 -1.872140e+00 165 107 55
-2.068963e-01 -2.375111e-01 -1.825091e+00 77 16 1
-2.077557e-01 -2.381589e-01 -1.835596e+00 77 16 1
-1.931246e-01 -2.374293e-01 -1.832504e+00 148 96 48
-1.860235e-01 -2.263127e-01 -1.824827e+00 61 5 0
-2.467611e-01 -2.231810e-01 -1.838850e+00 134 87 25
-7.359114e-02 -2.229769e-01 -1.814095e+00 114 20 0
-1.966017e-01 -2.014182e-01 -1.818295e+00 91 36 2
-2.623992e-01 -1.977617e-01 -1.836195e+00 96 39 0
1.566955e-02 -2.060003e-01 -1.819334e+00 135 48 29
-2.100728e-01 -1.949808e-01 -1.820801e+00 136 88 21
-4.105262e-01 -1.823548e-01 -1.902363e+00 134 95 51
-2.904070e-01 -1.839428e-01 -1.846265e+00 138 91 26
-2.801582e-01 -1.789906e-01 -1.841553e+00 81 37 0
-1.032120e-01 -1.798781e-01 -1.812983e+00 56 7 0
-3.086719e-01 -1.663438e-01 -1.850481e+00 136 90 25
-2.038210e-01 -1.535653e-01 -1.821700e+00 95 34 5
-3.616441e-01 -1.335507e-01 -1.865394e+00 109 61 2
-9.603466e-02 -1.389379e-01 -1.812341e+00 68 21 3
-2.207206e-01 -1.251856e-01 -1.822855e+00 67 16 2
-2.209617e-01 -1.256441e-01 -1.824114e+00 67 16 2
-6.265841e-03 -1.246780e-01 -1.814895e+00 70 8 0
-6.323846e-03 -1.244630e-01 -1.814346e+00 70 8 0
-1.244607e-01 -1.176960e-01 -1.814137e+00 133 77 18
-1.708587e-01 -9.814007e-02 -1.818630e+00 146 76 32
-1.420025e-01 -9.308976e-02 -1.817021e+00 119 37 7
-3.887430e-01 -8.090633e-02 -1.862691e+00 111 51 10
-2.414369e-01 -8.809803e-02 -1.817491e+00 124 33 3
-7.717102e-02 -9.333185e-02 -1.810713e+00 78 32 16
-8.866334e-02 -8.841794e-02 -1.812969e+00 58 17 0
-3.158829e-01 -7.622632e-02 -1.847112e+00 154 106 49
-1.419279e-01 -8.244120e-02 -1.817032e+00 120 34 4
-1.272361e-01 -6.925635e-02 -1.816163e+00 70 15 2
-3.261483e-01 -4.059877e-02 -1.849776e+00 154 76 43
4.156228e-02 -4.498533e-02 -1.811054e+00 94 44 0
4.008089e-02 -4.579931e-02 -1.805771e+00 94 44 0
3.441614e-02 -3.652647e-02 -1.805265e+00 157 105 47
-2.662603e-01 5.454586e-02 -1.849525e+00 57 56 62
-5.384288e-02 1.806249e-01 -1.840498e+00 106 92 90
-2.536515e-02 1.985540e-01 -1.858565e+00 109 94 92
-2.560909e-02 1.968660e-01 -1.854426e+00 109 94 92
-2.573718e-01 2.292258e-01 -1.905302e+00 96 83 92
-2.783875e-01 2.367977e-01 -1.914703e+00 48 37 43
-3.716369e-02 2.123819e-01 -1.864954e+00 56 41 46
-3.716369e-02 2.123819e-01 -1.864954e+00 56 41 46
-2.989396e-01 2.435507e-01 -1.911152e+00 78 72 87
-2.989396e-01 2.435507e-01 -1.911152e+00 78 72 87
-4.015758e-01 2.577579e-01 -1.929208e+00 47 33 33
-3.977539e-01 2.515432e-01 -1.916533e+00 47 33 33
-4.315319e-02 2.601930e-01 -1.863048e+00 34 26 39
1.456334e+00 3.617521e-01 -1.962807e+00 126 114 93
2.679820e-01 -7.910533e-01 -1.677334e+00 47 41 17
2.825999e-01 -8.045535e-01 -1.696858e+00 81 75 58
-4.340694e-01 -7.386067e-01 -1.790126e+00 71 85 47
-4.264551e-01 -7.176518e-01 -1.766467e+00 166 175 132
-4.329181e-01 -7.124645e-01 -1.760529e+00 101 97 56
-4.463210e-01 -7.238137e-01 -1.785423e+00 89 90 41
-4.492218e-01 -7.222068e-01 -1.790260e+00 151 165 98
-3.834496e-01 -7.194304e-01 -1.785755e+00 65 80 42
-4.013630e-01 -7.162083e-01 -1.784811e+00 46 97 46
-4.137192e-01 -7.137236e-01 -1.789359e+00 41 95 46
-3.488501e-01 -7.080398e-01 -1.775663e+00 103 107 56
-3.325577e-01 -7.106647e-01 -1.784759e+00 118 117 66
-4.334967e-01 -6.975985e-01 -1.794015e+00 38 73 15
-4.025999e-01 -6.768682e-01 -1.764976e+00 47 93 2
2.860281e-01 -6.614056e-01 -1.661288e+00 33 28 8
-3.704838e-01 -6.794810e-01 -1.781137e+00 176 195 146
-3.668471e-01 -6.659159e-01 -1.762302e+00 75 109 61
-2.973447e-01 -6.769028e-01 -1.775937e+00 45 83 43
-2.839575e-01 -6.787289e-01 -1.779319e+00 158 171 126
2.031483e-01 -6.991627e-01 -1.742283e+00 25 17 2
-1.239068e-01 -2.219435e-01 -1.135861e+00 25 67 0
-3.048334e-01 -6.545913e-01 -1.760228e+00 176 195 153
-2.824415e-01 -6.679660e-01 -1.775190e+00 19 64 0
-3.245245e-01 -6.628458e-01 -1.780298e+00 57 93 48
-3.428072e-01 -6.522250e-01 -1.783114e+00 195 208 178
-2.448938e-01 -6.510517e-01 -1.772771e+00 43 64 14
1.865307e-01 -6.701857e-01 -1.742518e+00 36 27 10
-2.171533e-01 -6.177932e-01 -1.770903e+00 187 206 137
-2.171533e-01 -6.177932e-01 -1.770903e+00 187 206 137
3.887484e-01 -5.823920e-01 -1.639991e+00 54 52 41
-1.493749e-01 -6.094803e-01 -1.763097e+00 57 68 30
-1.364296e-01 -6.075958e-01 -1.762858e+00 11 51 0
-1.515823e-01 -6.062096e-01 -1.763922e+00 180 191 133
-9.565119e-02 -5.984522e-01 -1.758904e+00 45 84 37
2.425856e-01 -5.873539e-01 -1.695430e+00 69 69 59
1.524750e-01 -6.165250e-01 -1.767160e+00 35 28 10
-1.473446e-01 -5.855589e-01 -1.761004e+00 24 106 14
-1.461279e-01 -5.768295e-01 -1.770768e+00 75 93 55
-1.494176e-01 -5.742109e-01 -1.770174e+00 189 182 146
6.807518e-01 -5.793586e-01 -1.657789e+00 45 38 22
-4.896312e-02 -5.706279e-01 -1.755256e+00 50 66 23
-1.375362e-01 -5.705363e-01 -1.768924e+00 180 175 134
-6.021799e-02 -5.696163e-01 -1.757145e+00 43 76 30
-1.114591e-01 -2.129759e-01 -1.128777e+00 149 172 115
-3.172223e-02 -5.558201e-01 -1.755312e+00 115 189 112
-5.381301e-02 -5.522993e-01 -1.753539e+00 49 134 45
-1.035112e-02 -5.509411e-01 -1.754131e+00 46 79 24
1.234073e-01 -5.773225e-01 -1.788683e+00 94 83 59
-2.129085e-02 -5.456357e-01 -1.755031e+00 41 81 30
4.199750e-03 -5.422504e-01 -1.749083e+00 25 73 1
8.265387e-02 -5.519561e-01 -1.758735e+00 99 93 53
-4.638162e-02 -5.363935e-01 -1.759976e+00 74 90 48
7.392653e-02 -5.401073e-01 -1.748266e+00 128 141 103
-1.070177e-02 -5.359981e-01 -1.754466e+00 28 91 5
2.425544e-01 -5.311191e-01 -1.715635e+00 44 43 38
6.892903e-02 -5.300078e-01 -1.744335e+00 21 65 0
-2.903480e-03 -5.205313e-01 -1.759535e+00 54 82 41
6.131110e-02 -5.150391e-01 -1.746460e+00 125 199 121
2.764239e-01 -5.114104e-01 -1.710646e+00 76 74 61
5.760076e-01 -5.026177e-01 -1.645108e+00 52 49 42
6.384752e-02 -4.967095e-01 -1.733684e+00 34 92 8
1.565082e-01 -5.018718e-01 -1.739438e+00 31 49 25
4.980282e-02 -4.978094e-01 -1.753207e+00 154 165 117
1.271712e-01 -4.797268e-01 -1.732289e+00 204 214 162
1.297106e-01 -4.754564e-01 -1.736290e+00 32 75 2
1.857574e-01 -4.737495e-01 -1.727446e+00 50 95 40
2.343104e-01 -4.801864e-01 -1.734703e+00 42 54 39
1.398466e-01 -4.729443e-01 -1.736397e+00 94 171 88
1.407802e-01 -4.739894e-01 -1.738418e+00 94 171 88
1.406201e-01 -4.738461e-01 -1.738045e+00 94 171 88
1.600267e-01 -4.692101e-01 -1.736069e+00 156 180 111
3.352338e-01 -4.700185e-01 -1.707626e+00 69 66 59
1.778748e-01 -4.665506e-01 -1.733507e+00 171 191 140
2.509961e-01 -4.702049e-01 -1.735130e+00 21 27 10
1.784600e-01 -4.603403e-01 -1.731652e+00 192 209 142
1.795196e-01 -4.614623e-01 -1.733674e+00 192 209 142
2.559367e-01 -4.642784e-01 -1.728374e+00 83 74 60
1.744316e-01 -4.594825e-01 -1.731408e+00 84 100 29
1.882769e-01 -4.604236e-01 -1.732712e+00 35 80 11
-2.775118e-01 -4.665302e-01 -1.835669e+00 158 104 61
1.710480e-01 -4.592667e-01 -1.736500e+00 183 209 134
1.446167e-01 -4.563942e-01 -1.738684e+00 186 202 149
2.422324e-01 -4.595132e-01 -1.729346e+00 33 64 15
2.422324e-01 -4.595132e-01 -1.729346e+00 33 64 15
1.716660e-01 -4.569207e-01 -1.740133e+00 9 52 0
-1.001192e-01 -4.616061e-01 -1.825762e+00 77 3 0
-2.476168e-01 -4.571982e-01 -1.845042e+00 149 90 40
-2.550804e-01 -4.568382e-01 -1.847204e+00 141 75 33
-7.281207e-02 -4.602248e-01 -1.829068e+00 125 49 38
2.403782e-01 -4.432694e-01 -1.725025e+00 49 67 10
-2.882610e-01 -4.491592e-01 -1.847249e+00 150 79 27
2.188839e-01 -4.397874e-01 -1.732511e+00 183 212 138
-4.799470e-02 -4.596785e-01 -1.842787e+00 74 1 1
3.941439e-01 -4.402553e-01 -1.704645e+00 62 59 50
2.326597e-01 -4.393990e-01 -1.734194e+00 47 77 14
-2.292678e-01 -4.404278e-01 -1.854514e+00 133 70 30
-2.226462e-01 -4.355185e-01 -1.840063e+00 74 9 1
4.691497e-01 -4.405415e-01 -1.718858e+00 82 79 70
4.694935e-01 -4.407890e-01 -1.719670e+00 82 79 70
5.555168e-02 -4.580058e-01 -1.861728e+00 104 71 39
-2.676809e-02 -4.379668e-01 -1.823786e+00 79 1 0
-3.166396e-01 -4.271882e-01 -1.857645e+00 86 27 0
5.520570e-01 -4.383772e-01 -1.719150e+00 73 69 33
4.181910e-01 -4.228407e-01 -1.699752e+00 69 66 57
-2.389212e-01 -4.253044e-01 -1.840915e+00 76 15 1
-4.225769e-01 -4.427042e-01 -1.934226e+00 106 55 14
-2.545345e-01 -4.231135e-01 -1.843019e+00 92 22 1
-2.549559e-01 -4.239725e-01 -1.845537e+00 92 22 1
-4.739085e-02 -4.233067e-01 -1.832244e+00 76 2 3
-2.114738e-01 -4.093240e-01 -1.824009e+00 94 30 1
-2.430724e-01 -4.133742e-01 -1.844059e+00 142 86 39
-5.150333e-02 -4.214354e-01 -1.832865e+00 115 32 19
-5.150333e-02 -4.214354e-01 -1.832865e+00 115 32 19
4.522288e-01 -4.165400e-01 -1.717348e+00 69 66 57
-2.265084e-01 -4.051898e-01 -1.837330e+00 127 67 34
-2.262572e-01 -4.039678e-01 -1.833778e+00 127 67 34
3.292769e-01 -4.074075e-01 -1.737361e+00 75 72 54
-2.369851e-01 -4.004367e-01 -1.836532e+00 77 19 3
-2.452221e-01 -3.960085e-01 -1.840228e+00 87 19 0
-2.247586e-01 -3.944991e-01 -1.834150e+00 128 58 22
-2.408996e-01 -3.856383e-01 -1.838870e+00 76 13 1
-2.509383e-01 -3.843215e-01 -1.839332e+00 90 21 0
-2.452655e-01 -3.797190e-01 -1.832073e+00 142 83 39
-1.974341e-01 -3.727311e-01 -1.825583e+00 71 5 3
-2.408631e-01 -3.702719e-01 -1.836454e+00 87 23 2
-2.405804e-01 -3.698660e-01 -1.835239e+00 87 23 2
-2.556480e-01 -3.687558e-01 -1.843602e+00 141 70 29
4.054663e-01 -3.779855e-01 -1.724033e+00 92 87 81
-3.677577e-01 -3.704737e-01 -1.880431e+00 139 88 34
-2.411729e-01 -3.651924e-01 -1.837688e+00 83 17 1
-2.412313e-01 -3.652872e-01 -1.837764e+00 83 17 1
-7.733420e-02 -3.625771e-01 -1.815839e+00 117 46 31
-2.175466e-01 -3.564768e-01 -1.828293e+00 142 86 48
-2.408934e-01 -3.553868e-01 -1.837207e+00 77 16 0
-2.462968e-01 -3.521512e-01 -1.838592e+00 143 85 40
-2.460729e-01 -3.519804e-01 -1.838135e+00 143 85 40
-1.043780e-01 -3.549547e-01 -1.823269e+00 78 4 2
-2.424619e-01 -3.499963e-01 -1.838384e+00 84 19 1
-3.673643e-01 -3.400095e-01 -1.864498e+00 102 46 0
-2.509362e-01 -3.393164e-01 -1.837512e+00 88 24 0
-2.039518e-01 -3.369221e-01 -1.826008e+00 80 18 6
-5.253647e-02 -3.418468e-01 -1.817137e+00 55 1 1
-1.784945e-01 -3.358031e-01 -1.822630e+00 126 75 22
-3.645858e-02 -3.413060e-01 -1.827121e+00 128 47 37
-3.642832e-02 -3.419225e-01 -1.827006e+00 128 47 37
-9.396318e-02 -3.384992e-01 -1.824471e+00 125 49 38
-8.368134e-02 -3.365394e-01 -1.820504e+00 125 46 34
-8.372035e-02 -3.359163e-01 -1.819317e+00 125 46 34
-1.585827e-01 -3.318532e-01 -1.819617e+00 123 39 13
6.325364e-02 -3.493251e-01 -1.841363e+00 25 9 1
-1.967415e-01 -3.279739e-01 -1.823962e+00 75 14 2
-7.388804e-02 -3.326893e-01 -1.819773e+00 63 4 2
-2.378936e-01 -3.230995e-01 -1.837962e+00 142 89 53
-2.576409e-01 -3.165138e-01 -1.839641e+00 93 35 4
-2.510098e-01 -3.089871e-01 -1.838559e+00 82 17 0
-2.511900e-01 -3.090584e-01 -1.839552e+00 82 17 0
-2.035139e-01 -3.090058e-01 -1.831248e+00 60 0 0
-2.293994e-01 -3.066485e-01 -1.833247e+00 86 34 1
-1.436899e-01 -3.061657e-01 -1.817046e+00 130 34 12
-2.402547e-01 -3.037132e-01 -1.832209e+00 87 27 4
-2.522570e-01 -3.030849e-01 -1.839062e+00 82 18 0
-2.212107e-01 -2.991208e-01 -1.831319e+00 64 8 0
-2.257901e-01 -2.989831e-01 -1.831106e+00 132 81 42
-2.256352e-01 -2.985871e-01 -1.828798e+00 132 81 42
-2.301315e-01 -2.979899e-01 -1.833344e+00 69 14 0
-2.042387e-01 -2.987685e-01 -1.830616e+00 73 10 0
-3.679912e-01 -2.956687e-01 -1.867219e+00 109 52 7
-1.275289e-01 -3.007000e-01 -1.840846e+00 104 20 1
-2.204765e-01 -2.924921e-01 -1.830425e+00 91 35 3
-1.429389e-01 -2.983780e-01 -1.852565e+00 107 29 3
-2.373280e-01 -2.885833e-01 -1.833273e+00 90 37 3
-2.373217e-01 -2.886152e-01 -1.833405e+00 90 37 3
-3.711930e-01 -2.877594e-01 -1.876612e+00 120 61 5
-1.512384e-01 -2.946021e-01 -1.851534e+00 111 28 2
-1.514584e-01 -2.943831e-01 -1.851070e+00 111 28 2
-7.297923e-04 -3.026700e-01 -1.868866e+00 78 0 0
-7.308003e-03 -2.974492e-01 -1.831041e+00 78 0 0
-1.308944e-02 -2.934723e-01 -1.818947e+00 115 34 27
-2.779467e-02 -2.906714e-01 -1.821868e+00 54 1 1
-8.284195e-02 -2.864591e-01 -1.810958e+00 60 2 1
-8.885645e-02 -2.829726e-01 -1.817004e+00 63 3 3
4.725410e-01 -3.089647e-01 -1.836344e+00 80 67 38
-3.696900e-01 -2.661319e-01 -1.869801e+00 110 52 4
-2.966307e-01 -2.619765e-01 -1.844252e+00 81 34 5
-3.114019e-01 -2.596866e-01 -1.850055e+00 149 92 40
-3.687635e-01 -2.540097e-01 -1.868271e+00 93 33 0
-3.719074e-01 -2.556024e-01 -1.877933e+00 93 33 0
-6.293347e-02 -2.591150e-01 -1.813411e+00 101 14 1
-1.972631e-01 -2.540639e-01 -1.828536e+00 72 17 3
-3.416899e-01 -2.487503e-01 -1.859839e+00 87 44 8
-1.221420e-01 -2.511064e-01 -1.816295e+00 115 24 0
-3.949080e-01 -2.391800e-01 -1.888250e+00 118 48 10
-2.103386e-01 -2.354138e-01 -1.827953e+00 129 74 18
-4.006701e-01 -2.301942e-01 -1.885221e+00 124 76 31
-3.492622e-01 -2.154844e-01 -1.861727e+00 142 98 35
-3.915935e-01 -2.127585e-01 -1.881199e+00 107 39 2
-3.023973e-01 -2.046025e-01 -1.847728e+00 78 37 2
-1.950710e-01 -2.074878e-01 -1.823597e+00 88 27 0
-1.813986e-02 -2.122925e-01 -1.816393e+00 106 16 0
-2.094748e-01 -2.022900e-01 -1.826225e+00 133 79 31
-3.092307e-01 -1.988332e-01 -1.850540e+00 136 90 35
-3.277559e-01 -1.968688e-01 -1.850348e+00 74 30 0
-2.814163e-01 -1.976026e-01 -1.840043e+00 99 40 1
-2.908868e-01 -1.953085e-01 -1.846380e+00 113 55 3
-2.858460e-01 -1.926778e-01 -1.837876e+00 148 93 30
-1.916043e-01 -1.912158e-01 -1.829608e+00 148 102 54
-1.913732e-01 -1.914491e-01 -1.827320e+00 148 102 54
-2.059772e-01 -1.900808e-01 -1.827607e+00 64 16 1
-3.045926e-01 -1.793884e-01 -1.849670e+00 139 92 39
-1.029516e-01 -1.845909e-01 -1.810402e+00 124 66 23
-1.126303e-01 -1.824452e-01 -1.819153e+00 83 25 2
-3.366379e-01 -1.741325e-01 -1.853338e+00 108 55 6
-3.374210e-01 -1.741685e-01 -1.856692e+00 108 55 6
-1.087044e-01 -1.816683e-01 -1.814768e+00 142 90 40
-1.027301e-01 -1.771122e-01 -1.816108e+00 64 13 1
-3.001820e-01 -1.692048e-01 -1.844792e+00 138 91 34
-3.198090e-01 -1.679298e-01 -1.851503e+00 78 35 1
-1.122783e-01 -1.691184e-01 -1.812474e+00 84 28 6
-6.373268e-02 -1.602316e-01 -1.807709e+00 63 19 2
1.240229e-02 -1.604992e-01 -1.821707e+00 49 2 1
-1.712767e-01 -1.546032e-01 -1.821077e+00 169 114 70
-2.885253e-01 -1.451230e-01 -1.844304e+00 97 50 1
-3.473437e-01 -1.430239e-01 -1.859952e+00 142 91 35
-3.472882e-01 -1.429616e-01 -1.859588e+00 142 91 35
-3.990295e-02 -1.549836e-01 -1.805887e+00 71 21 7
-3.990295e-02 -1.549836e-01 -1.805887e+00 71 21 7
-1.945028e-01 -1.449865e-01 -1.823359e+00 81 21 2
-2.059344e-01 -1.443413e-01 -1.826164e+00 76 11 3
-2.055253e-01 -1.443612e-01 -1.822721e+00 76 11 3
-3.375611e-01 -1.361014e-01 -1.858833e+00 96 48 1
-1.899481e-01 -1.426891e-01 -1.825651e+00 147 94 47
-2.037489e-01 -1.386109e-01 -1.818762e+00 79 18 0
-1.706911e-01 -1.376923e-01 -1.821793e+00 163 105 52
-2.137107e-01 -1.263255e-01 -1.828522e+00 77 26 2
-2.534992e-01 -1.207320e-01 -1.836904e+00 151 100 52
-2.920855e-02 -1.300834e-01 -1.804517e+00 67 16 6
-1.283280e-01 -1.267244e-01 -1.813762e+00 64 5 1
-3.486066e-01 -1.151241e-01 -1.857908e+00 81 36 0
-2.156360e-01 -1.204544e-01 -1.830397e+00 77 21 1
-2.674568e-01 -1.170762e-01 -1.836471e+00 145 97 48
-2.413476e-01 -1.191055e-01 -1.822157e+00 88 35 3
-3.057529e-01 -1.142494e-01 -1.847378e+00 75 28 0
-2.740598e-01 -1.155217e-01 -1.840743e+00 149 97 53
-2.740939e-01 -1.154868e-01 -1.840950e+00 149 97 53
-4.104234e-01 -1.050371e-01 -1.898287e+00 135 102 55
-3.338822e-01 -1.054279e-01 -1.856281e+00 107 60 3
-1.684650e-01 -1.115107e-01 -1.820190e+00 161 88 46
-2.018412e-01 -1.083975e-01 -1.824727e+00 71 20 0
-2.059795e-02 -1.130854e-01 -1.809548e+00 68 7 0
-1.892924e-01 -1.056360e-01 -1.824083e+00 145 92 52
-3.393348e-01 -9.524335e-02 -1.865029e+00 96 49 0
-2.018662e-01 -1.006471e-01 -1.825749e+00 75 27 1
-1.882047e-02 -8.442353e-02 -1.810838e+00 63 14 0
-1.240741e-01 -7.801234e-02 -1.811162e+00 120 71 30
-2.250346e-02 -7.792863e-02 -1.811258e+00 132 82 40
-2.244140e-02 -7.772633e-02 -1.811308e+00 132 82 40
-3.430983e-01 -5.602481e-02 -1.851836e+00 159 80 50
2.369943e-02 -6.722466e-02 -1.813662e+00 79 40 3
-3.958028e-01 -3.690409e-02 -1.885037e+00 108 47 6
-9.628554e-02 1.129229e-02 -1.838137e+00 177 98 58
-1.254121e-01 3.558083e-02 -1.823266e+00 31 26 32
-1.073807e-01 3.996217e-02 -1.819619e+00 11 7 12
-4.139486e-01 1.141132e-01 -1.924226e+00 116 88 38
-1.125323e-01 1.965408e-01 -1.864122e+00 105 93 102
-2.502082e-01 2.189383e-01 -1.885401e+00 48 36 48
8.699098e-02 1.951349e-01 -1.838504e+00 126 115 96
-1.390225e-01 2.294247e-01 -1.896354e+00 94 80 83
8.020580e-02 2.007194e-01 -1.830274e+00 106 90 83
8.670422e-02 2.146153e-01 -1.845382e+00 109 92 78
8.032044e-02 2.156127e-01 -1.831444e+00 98 82 58
-3.893008e-01 2.942549e-01 -1.952682e+00 51 38 22
-7.033522e-02 3.131592e-01 -1.934210e+00 61 47 37
1.771178e-02 -1.911875e-01 -1.846098e+00 106 15 0
-3.448771e-01 -1.778776e-01 -1.846363e+00 103 47 1
1.710698e+00 5.184589e-01 -2.188201e+00 71 57 38
-5.004675e-02 -5.839174e-01 -1.755286e+00 42 83 28
-1.055179e-01 -6.227251e-01 -1.764669e+00 177 154 110
-1.409888e-01 -6.087884e-01 -1.759512e+00 177 196 137
1.077972e-01 -5.135424e-01 -1.742789e+00 150 174 114
-8.382319e-02 -2.065680e-01 -1.831839e+00 133 22 7
-4.361255e-01 -6.748810e-01 -1.759832e+00 25 76 17
6.197754e-02 -4.858078e-01 -1.730955e+00 18 71 8
-2.101093e-01 -1.877341e-01 -1.827773e+00 102 55 26
-2.524623e-01 -6.365497e-01 -1.758996e+00 133 142 97
4.419149e-01 -5.721462e-01 -1.655297e+00 72 70 55
-2.698102e-03 -1.501526e-01 -1.826060e+00 54 13 0
2.580820e-01 -7.749856e-01 -1.688693e+00 23 19 4
-2.283406e-01 -3.628967e-01 -1.835378e+00 130 72 22
-2.282445e-01 -3.627400e-01 -1.834951e+00 130 72 22
-8.119320e-02 -3.507510e-01 -1.818975e+00 59 16 11
-2.281539e-01 -3.175822e-01 -1.836651e+00 141 81 27
-2.281539e-01 -3.175822e-01 -1.836651e+00 141 81 27
-8.493556e-03 -3.194325e-01 -1.819999e+00 60 1 0
-2.358036e-01 -3.015735e-01 -1.835747e+00 141 83 26
-2.396517e-01 -2.920586e-01 -1.835270e+00 94 49 15
-3.624739e-02 -2.774392e-01 -1.827517e+00 58 3 1
2.279939e-02 -2.565521e-01 -1.823627e+00 52 1 3
2.221503e-02 -2.568893e-01 -1.822921e+00 52 1 3
-3.485544e-01 -2.214883e-01 -1.860819e+00 89 36 4
-3.106262e-01 -2.199767e-01 -1.856042e+00 81 31 2
-3.399491e-01 -2.104691e-01 -1.864734e+00 90 42 6
-3.518462e-01 -2.049276e-01 -1.862595e+00 100 48 7
-3.618909e-01 -1.692764e-01 -1.872281e+00 114 63 9
-3.623110e-01 -1.681403e-01 -1.871587e+00 114 63 9
-1.301791e-01 -1.620560e-01 -1.813487e+00 104 44 8
1.593308e-02 -1.583116e-01 -1.828713e+00 96 47 34
-3.559832e-01 -1.313027e-01 -1.864793e+00 142 95 25
-2.090104e-01 -1.310980e-01 -1.821321e+00 138 87 21
-2.090104e-01 -1.310980e-01 -1.821321e+00 138 87 21
-1.074734e-01 -1.333232e-01 -1.812296e+00 132 73 16
-1.979546e-01 -9.894557e-02 -1.802852e+00 145 95 27
-1.983178e-01 -9.696005e-02 -1.811958e+00 145 95 27
-2.044797e-01 -9.924926e-02 -1.803075e+00 152 100 40
-2.734645e-01 -7.385738e-02 -1.834862e+00 165 94 61
-2.705339e-01 -7.589633e-02 -1.818464e+00 165 94 61
-3.677594e-01 -6.485456e-02 -1.862487e+00 93 47 0
2.147488e-01 -7.110668e-01 -1.716839e+00 30 23 5
-3.241743e-01 -4.273981e-01 -1.864012e+00 90 32 3
-3.241743e-01 -4.273981e-01 -1.864012e+00 90 32 3
-3.399869e-01 -4.208303e-01 -1.882748e+00 132 76 18
-3.358765e-01 -4.160028e-01 -1.867298e+00 132 76 18
-2.460798e-01 -4.062883e-01 -1.829991e+00 88 23 0
5.860828e-01 -4.417493e-01 -1.768293e+00 195 181 138
-3.300741e-01 -4.084625e-01 -1.862127e+00 84 29 1
-3.300741e-01 -4.084625e-01 -1.862127e+00 84 29 1
-1.446267e-02 -4.173165e-01 -1.836999e+00 68 0 2
-2.333978e-01 -3.851606e-01 -1.843138e+00 69 13 1
-3.685440e-01 -3.647549e-01 -1.882496e+00 98 46 1
-3.654981e-01 -3.464554e-01 -1.883826e+00 145 88 31
-3.649849e-01 -3.457530e-01 -1.881961e+00 145 88 31
-2.035347e-02 -3.496553e-01 -1.818970e+00 58 4 9
-2.101191e-02 -3.478195e-01 -1.812361e+00 58 4 9
-1.142036e-02 -3.491771e-01 -1.824191e+00 54 0 4
-1.142036e-02 -3.491771e-01 -1.824191e+00 54 0 4
-1.619918e-01 -3.259316e-01 -1.826590e+00 124 24 1
-1.619918e-01 -3.259316e-01 -1.826590e+00 124 24 1
-3.788507e-01 -3.040779e-01 -1.902625e+00 112 55 2
-3.166659e-01 -2.101938e-01 -1.857608e+00 145 96 37
-3.438854e-01 -9.756878e-02 -1.857498e+00 88 46 4
-3.438854e-01 -9.756878e-02 -1.857498e+00 88 46 4
-1.839577e-01 -1.045808e-01 -1.825943e+00 61 9 4
-3.696498e-01 -8.452581e-02 -1.868348e+00 104 63 11
-9.511574e-02 -6.141552e-02 -1.818481e+00 153 112 51
8.747427e-02 1.863317e-01 -1.831264e+00 31 14 10
2.792112e-01 -7.353792e-01 -1.671131e+00 45 45 37
3.041254e-01 -6.680532e-01 -1.660457e+00 83 80 73
2.869377e-01 -6.623686e-01 -1.662769e+00 32 25 6
-2.736231e-01 -6.828098e-01 -1.780484e+00 48 56 9
3.063532e-01 -6.041791e-01 -1.670266e+00 60 59 47
3.063532e-01 -6.041791e-01 -1.670266e+00 60 59 47
6.021279e-02 -5.519215e-01 -1.753441e+00 37 53 8
-1.354742e-02 -5.433581e-01 -1.754201e+00 22 34 0
1.342443e-01 -4.848364e-01 -1.740101e+00 31 39 0
-1.787380e-01 -4.812223e-01 -1.833705e+00 153 75 36
1.830216e-01 -4.658631e-01 -1.735271e+00 26 40 2
-1.897368e-01 -4.618496e-01 -1.841719e+00 101 33 0
-7.958092e-02 -4.567052e-01 -1.832085e+00 120 37 22
-2.393009e-01 -4.166059e-01 -1.848912e+00 70 7 3
-2.479615e-01 -4.092861e-01 -1.840451e+00 88 22 0
-2.480175e-01 -4.093396e-01 -1.841099e+00 88 22 0
-2.092834e-01 -3.719518e-01 -1.836224e+00 134 77 33
-1.977636e-01 -3.586490e-01 -1.828855e+00 73 9 1
-1.885276e-01 -3.549973e-01 -1.832414e+00 97 31 1
-2.517530e-01 -3.485808e-01 -1.839280e+00 86 20 1
-1.957012e-01 -3.196712e-01 -1.831020e+00 137 79 23
-6.121837e-02 -3.130014e-01 -1.821432e+00 71 8 8
-1.997758e-01 -3.025650e-01 -1.823517e+00 135 74 19
-8.226973e-02 -3.046198e-01 -1.824495e+00 61 0 0
-3.125605e-01 -2.609192e-01 -1.854977e+00 148 91 43
-1.973926e-01 -2.491601e-01 -1.826738e+00 74 18 7
-1.964330e-01 -2.218638e-01 -1.827679e+00 64 13 6
-2.489729e-01 -2.188238e-01 -1.836414e+00 80 38 5
1.371482e-03 -2.038057e-01 -1.857931e+00 144 56 36
-6.531388e-03 -2.010094e-01 -1.819548e+00 144 56 36
-6.366832e-02 -1.932766e-01 -1.816513e+00 151 106 68
-8.093434e-02 -1.784565e-01 -1.815706e+00 72 3 0
-1.712830e-01 -1.617020e-01 -1.818294e+00 170 119 73
-1.712496e-01 -1.471719e-01 -1.821078e+00 170 112 75
-1.712354e-01 -1.473236e-01 -1.821453e+00 170 112 75
-1.099272e-01 -1.461790e-01 -1.814434e+00 59 3 0
-2.096693e-01 -1.249744e-01 -1.828268e+00 144 98 49
6.230376e-02 -1.075544e-01 -1.822157e+00 126 59 24
6.230376e-02 -1.075544e-01 -1.822157e+00 126 59 24
-2.942969e-01 -8.181864e-02 -1.840138e+00 152 101 46
-1.281710e-01 -7.773858e-02 -1.805804e+00 61 6 0
-4.149327e-01 -1.821574e-02 -1.907173e+00 126 92 47
-1.037893e-01 1.363372e-01 -1.814738e+00 41 41 51
-1.726862e-01 2.039362e-01 -1.872081e+00 48 37 49
-2.548329e-01 3.188733e-01 -1.948241e+00 35 28 16
1.869060e+00 6.017422e-01 -2.325857e+00 94 84 56
2.810314e-01 -8.027002e-01 -1.682839e+00 35 29 8
-4.104309e-01 -7.281232e-01 -1.785185e+00 39 77 22
-4.235525e-01 -6.833866e-01 -1.767284e+00 50 109 42
-4.425842e-01 -6.955502e-01 -1.796609e+00 26 55 17
-3.598467e-01 -6.922051e-01 -1.782335e+00 48 100 55
-3.023242e-01 -6.911275e-01 -1.779003e+00 48 63 3
2.999111e-01 -6.545905e-01 -1.663895e+00 76 71 53
-3.727945e-01 -6.757688e-01 -1.784261e+00 85 105 34
-3.999060e-01 -6.774000e-01 -1.793994e+00 73 95 63
1.922888e-01 -6.872254e-01 -1.731089e+00 89 80 56
-3.052457e-01 -6.580275e-01 -1.759367e+00 44 95 48
-3.245592e-01 -6.635343e-01 -1.781618e+00 61 95 50
3.243929e-01 -6.119058e-01 -1.663188e+00 58 58 50
3.080262e-01 -6.040301e-01 -1.665135e+00 51 47 36
-2.347155e-01 -6.117302e-01 -1.778747e+00 57 78 33
-1.267127e-02 -5.859573e-01 -1.761996e+00 166 154 94
1.503948e-01 -5.802569e-01 -1.765217e+00 23 17 6
2.424286e-02 -5.590161e-01 -1.751242e+00 143 153 112
1.276488e-01 -5.854313e-01 -1.792999e+00 95 83 57
2.524670e-02 -5.191731e-01 -1.753814e+00 185 209 135
6.094094e-02 -5.144281e-01 -1.745241e+00 127 200 122
8.229801e-02 -5.076116e-01 -1.747550e+00 188 209 161
1.581342e-01 -4.916946e-01 -1.737167e+00 150 173 116
1.377103e-01 -4.771987e-01 -1.739061e+00 34 92 13
2.310800e-01 -4.779450e-01 -1.729704e+00 47 55 40
1.666583e-01 -4.732067e-01 -1.732570e+00 14 75 10
2.447855e-01 -4.624030e-01 -1.728440e+00 129 142 103
-2.194195e-01 -4.659574e-01 -1.848643e+00 150 82 45
-2.050650e-01 -4.582915e-01 -1.835766e+00 83 19 6
2.055453e-01 -4.358430e-01 -1.742577e+00 26 27 0
5.871702e-02 -4.702222e-01 -1.871104e+00 154 132 90
-3.648370e-01 -4.428282e-01 -1.874643e+00 158 86 38
-2.222815e-01 -4.342951e-01 -1.835815e+00 76 8 0
-2.039315e-01 -4.317496e-01 -1.830948e+00 77 12 7
-3.272908e-01 -4.350285e-01 -1.861704e+00 94 41 1
-3.513205e-01 -4.324048e-01 -1.869482e+00 89 29 0
2.353506e-01 -4.207567e-01 -1.731601e+00 28 22 2
-2.491938e-01 -4.271133e-01 -1.846783e+00 88 24 6
-2.199740e-01 -4.237218e-01 -1.836000e+00 136 72 24
5.497651e-02 -4.460095e-01 -1.859194e+00 80 53 43
-2.401641e-01 -4.210380e-01 -1.841476e+00 134 74 26
-2.480091e-01 -4.155798e-01 -1.841651e+00 85 20 0
-1.977183e-01 -4.152704e-01 -1.835090e+00 84 22 4
-8.411645e-02 -4.142836e-01 -1.824221e+00 66 3 2
-2.307555e-01 -4.044321e-01 -1.840160e+00 70 9 0
-2.569610e-02 -4.139127e-01 -1.838833e+00 115 35 24
-1.980366e-01 -3.979649e-01 -1.827929e+00 82 19 2
-3.453647e-01 -3.967076e-01 -1.869736e+00 143 81 33
-4.289172e-01 -4.078621e-01 -1.934643e+00 156 124 82
-2.054179e-01 -3.902525e-01 -1.833311e+00 73 9 0
-2.049999e-01 -3.833606e-01 -1.832779e+00 77 17 0
-2.123271e-01 -3.530879e-01 -1.835008e+00 95 31 1
-1.084966e-01 -3.513829e-01 -1.817585e+00 131 51 35
-1.084966e-01 -3.513829e-01 -1.817585e+00 131 51 35
-3.341496e-01 -3.426117e-01 -1.861820e+00 142 84 31
-2.510539e-01 -3.394162e-01 -1.837259e+00 83 19 0
-2.121469e-01 -3.383219e-01 -1.834125e+00 89 25 1
-3.534182e-01 -3.322060e-01 -1.865501e+00 141 84 28
-1.337593e-01 -3.354072e-01 -1.827515e+00 150 59 38
-1.338123e-01 -3.355615e-01 -1.828038e+00 150 59 38
-1.712339e-01 -3.303203e-01 -1.826621e+00 110 33 2
-6.457307e-02 -3.303774e-01 -1.820247e+00 61 2 2
-2.038336e-01 -3.232143e-01 -1.828799e+00 82 23 8
-4.036038e-02 -3.290709e-01 -1.821591e+00 119 43 35
-1.541871e-02 -3.232028e-01 -1.823164e+00 111 43 31
1.673514e-04 -3.159949e-01 -1.811369e+00 69 0 1
-2.406495e-01 -3.034954e-01 -1.833082e+00 92 34 7
-1.015701e-01 -2.989241e-01 -1.820406e+00 63 6 5
-1.015883e-01 -2.987851e-01 -1.819961e+00 63 6 5
-1.483828e-01 -2.949043e-01 -1.806904e+00 116 41 13
-6.664184e-02 -2.970498e-01 -1.818344e+00 131 49 41
-2.510112e-01 -2.866611e-01 -1.836152e+00 99 38 6
-6.668110e-02 -2.785002e-01 -1.814066e+00 73 3 0
-3.120926e-01 -2.601080e-01 -1.852776e+00 147 90 43
-3.146885e-01 -2.568112e-01 -1.852924e+00 96 35 0
-3.411474e-02 -2.558285e-01 -1.817478e+00 138 53 33
-7.749454e-02 -2.497666e-01 -1.815129e+00 109 25 5
-7.749454e-02 -2.497666e-01 -1.815129e+00 109 25 5
-2.078593e-01 -2.433990e-01 -1.831087e+00 136 79 18
2.380931e-01 -2.576086e-01 -1.820653e+00 201 186 162
-3.995094e-01 -2.292588e-01 -1.891693e+00 146 91 50
-7.267683e-02 -2.114016e-01 -1.815809e+00 160 69 49
-3.950057e-01 -1.996187e-01 -1.890203e+00 112 47 10
-2.805302e-01 -2.015939e-01 -1.842598e+00 139 80 24
-3.132022e-01 -1.999007e-01 -1.852629e+00 92 46 12
-7.492391e-04 -2.073128e-01 -1.819777e+00 107 16 0
-3.389509e-01 -1.880227e-01 -1.856918e+00 142 96 43
1.579297e-04 -2.008020e-01 -1.815262e+00 142 54 34
-1.966517e-01 -1.855480e-01 -1.825946e+00 73 16 1
-1.966517e-01 -1.855480e-01 -1.825946e+00 73 16 1
-3.089818e-01 -1.778143e-01 -1.851586e+00 74 27 1
-1.084827e-01 -1.820053e-01 -1.817985e+00 141 90 42
-3.757456e-01 -1.637883e-01 -1.869915e+00 167 107 49
-3.114959e-01 -1.612654e-01 -1.849259e+00 131 81 23
3.257450e-02 -1.653229e-01 -1.821221e+00 149 89 51
-1.957178e-01 -1.544776e-01 -1.830525e+00 94 37 10
-2.017668e-01 -1.416411e-01 -1.830009e+00 141 88 37
-2.469123e-01 -1.275713e-01 -1.826630e+00 138 83 26
-2.466502e-01 -1.278690e-01 -1.827145e+00 138 83 26
-3.768155e-01 -1.137952e-01 -1.870461e+00 164 105 47
-9.418150e-02 -1.211439e-01 -1.808647e+00 79 29 10
-3.399186e-01 -1.047366e-01 -1.862941e+00 138 91 26
-2.952030e-01 -1.067612e-01 -1.830227e+00 141 90 30
-1.269109e-01 -1.127638e-01 -1.813781e+00 85 26 10
-3.686903e-02 -1.137625e-01 -1.813602e+00 77 22 12
-3.686903e-02 -1.137625e-01 -1.813602e+00 77 22 12
-1.141572e-01 -8.849795e-02 -1.809623e+00 53 11 7
4.974675e-02 -9.103383e-02 -1.816729e+00 138 81 37
-2.528158e-01 -7.455507e-02 -1.814399e+00 116 32 4
-3.767973e-01 -6.265718e-02 -1.872655e+00 150 94 46
-8.939307e-02 -7.636977e-02 -1.808601e+00 126 78 27
-8.689033e-02 -5.680778e-02 -1.812760e+00 117 30 3
-3.927591e-03 -4.832252e-02 -1.813019e+00 155 101 38
-2.332669e-01 4.137806e-03 -1.832078e+00 192 96 57
8.458893e-02 7.908835e-02 -1.832589e+00 151 107 60
-8.392358e-02 1.940937e-01 -1.858565e+00 43 34 44
-1.190589e-01 1.964895e-01 -1.862074e+00 52 38 47
-2.007492e-01 2.101927e-01 -1.880559e+00 50 38 50
-2.219892e-02 1.953340e-01 -1.843433e+00 52 39 43
-1.469298e-02 1.995553e-01 -1.845002e+00 55 42 50
-1.469298e-02 1.995553e-01 -1.845002e+00 55 42 50
-1.642789e-01 2.181693e-01 -1.869860e+00 99 84 87
-1.612622e-01 2.293891e-01 -1.892184e+00 92 80 84
-3.035342e-01 2.423690e-01 -1.908437e+00 79 68 86
-3.536627e-01 2.944239e-01 -1.950615e+00 29 22 35
-6.516260e-02 3.026614e-01 -1.916874e+00 42 27 19
1.988741e+00 9.324558e-01 -2.461080e+00 12 11 6
1.314143e-01 -4.680309e-01 -1.712701e+00 144 175 105
1.320961e-01 -4.691470e-01 -1.714661e+00 144 175 105
-2.038104e-01 -6.567110e-01 -1.763395e+00 170 153 108
-4.887210e-02 -5.923713e-01 -1.768804e+00 44 85 28
-1.053688e-01 -6.201630e-01 -1.760523e+00 177 156 110
-2.508864e-01 -6.247465e-01 -1.784421e+00 25 89 36
-3.015736e-01 -1.115314e-01 -1.842971e+00 102 58 23
-3.016907e-01 -1.116036e-01 -1.843350e+00 102 58 23
-3.533966e-01 -6.769403e-01 -1.771092e+00 173 185 134
1.734714e-02 -5.624172e-01 -1.764071e+00 165 176 123
-1.166230e-01 -1.341156e-01 -1.818925e+00 132 75 8
-1.166230e-01 -1.341156e-01 -1.818925e+00 132 75 8
8.272914e-02 -1.029951e-01 -1.857000e+00 129 83 42
6.927811e-01 -5.796706e-01 -1.658245e+00 179 165 122
-4.301297e-02 -3.445561e-01 -1.826626e+00 62 6 2
-3.113556e-01 -2.124335e-01 -1.858712e+00 142 94 19
-5.747492e-02 -1.775080e-01 -1.835581e+00 83 39 27
-5.654178e-02 -1.218620e-01 -1.805950e+00 93 51 28
-5.654178e-02 -1.218620e-01 -1.805950e+00 93 51 28
-3.081775e-01 1.457857e-01 -1.759508e+00 95 85 77
1.723713e-01 -5.006243e-01 -1.740047e+00 96 111 79
1.397504e-01 -4.719223e-01 -1.745151e+00 13 79 9
-2.438894e-01 -4.241162e-01 -1.846761e+00 141 77 27
8.864280e-03 -3.461257e-01 -1.841722e+00 61 0 0
4.529715e-03 -3.167486e-01 -1.826617e+00 57 2 0
4.180205e-01 -2.932690e-01 -1.814223e+00 196 183 143
-3.589149e-01 -1.979373e-01 -1.889795e+00 142 99 30
-3.346987e-01 2.012849e-01 -1.878785e+00 108 94 87
4.740385e-01 -8.217292e-01 -1.675727e+00 28 22 6
-4.043100e-01 -6.777168e-01 -1.798459e+00 195 183 156
-3.140796e-01 -6.570362e-01 -1.781277e+00 170 198 121
3.124454e-01 -6.015395e-01 -1.656713e+00 59 57 46
3.124454e-01 -6.015395e-01 -1.656713e+00 59 57 46
-2.144601e-01 -6.217641e-01 -1.772242e+00 32 47 12
-2.380337e-01 -6.151783e-01 -1.776231e+00 24 66 21
-7.105556e-02 -6.037804e-01 -1.764494e+00 46 49 2
-1.873354e-01 -5.912553e-01 -1.776792e+00 187 178 142
8.676359e-02 -5.063094e-01 -1.748470e+00 16 30 0
8.725816e-02 -4.886834e-01 -1.744571e+00 5 65 2
2.094793e-01 -4.430955e-01 -1.742316e+00 15 55 5
-4.831277e-02 -4.582170e-01 -1.835666e+00 77 1 1
-2.021582e-01 -4.249933e-01 -1.836283e+00 131 66 24
-2.020984e-01 -4.247540e-01 -1.835178e+00 131 66 24
-2.095740e-01 -4.180876e-01 -1.840445e+00 141 80 32
6.204329e-02 -3.579338e-01 -1.852491e+00 23 2 0
-2.526008e-01 -3.339560e-01 -1.841449e+00 85 15 0
7.018786e-02 -3.403311e-01 -1.848649e+00 202 187 158
-3.025878e-02 -2.973973e-01 -1.821792e+00 117 40 26
1.187398e-02 -2.808414e-01 -1.874266e+00 116 37 27
6.891919e-02 -2.688852e-01 -1.838589e+00 130 113 70
-3.491737e-01 -2.509405e-01 -1.864203e+00 75 31 2
-4.032198e-02 -2.236206e-01 -1.823485e+00 105 15 0
-1.026654e-01 -1.981819e-01 -1.823120e+00 161 110 71
-1.239876e-01 -1.174167e-01 -1.816092e+00 134 77 17
-3.937451e-01 -9.448333e-02 -1.875962e+00 114 52 13
-8.409187e-02 -1.094780e-01 -1.811090e+00 132 78 17
-2.801234e-01 -8.575985e-02 -1.828499e+00 156 105 48
-3.938949e-01 -6.395619e-02 -1.870356e+00 113 54 14
-2.068675e-02 -7.962264e-02 -1.820463e+00 133 86 39
-9.355926e-02 -7.480492e-02 -1.810463e+00 54 2 0
-1.407256e-01 1.971446e-01 -1.861204e+00 47 35 46
-3.952633e-01 2.240264e-01 -1.887294e+00 57 41 35
-3.965502e-01 -6.871402e-01 -1.758412e+00 171 200 162
-3.552673e-01 -7.161413e-01 -1.790162e+00 41 64 9
-4.058004e-01 -6.979033e-01 -1.786778e+00 30 65 1
2.749203e-01 -6.593297e-01 -1.653546e+00 32 29 14
2.777923e-01 -6.489141e-01 -1.642713e+00 54 48 34
3.051348e-01 -6.523278e-01 -1.656260e+00 65 62 52
1.959205e-01 -6.938855e-01 -1.734701e+00 88 78 51
-3.167746e-01 -6.688061e-01 -1.785039e+00 171 193 147
-2.526800e-01 -6.558234e-01 -1.777453e+00 30 66 23
2.475767e-01 -6.234020e-01 -1.684310e+00 37 37 29
-2.496911e-01 -6.151414e-01 -1.781451e+00 188 181 150
6.909835e-01 -6.141354e-01 -1.655212e+00 51 49 30
6.848045e-01 -5.785104e-01 -1.650372e+00 181 168 126
-6.577797e-02 -5.719519e-01 -1.761607e+00 51 109 50
1.487684e-01 -5.780209e-01 -1.761379e+00 23 16 6
4.749176e-01 -5.469223e-01 -1.655372e+00 67 64 54
3.404378e-03 -5.566621e-01 -1.753423e+00 154 182 139
2.430761e-01 -5.314792e-01 -1.716308e+00 43 43 35
4.038861e-02 -5.338176e-01 -1.753510e+00 43 76 25
2.984038e-01 -5.003072e-01 -1.717495e+00 55 52 45
1.942262e-01 -4.765761e-01 -1.736133e+00 182 211 163
1.983462e-01 -4.751247e-01 -1.734713e+00 55 76 30
-2.551119e-01 -4.767555e-01 -1.847190e+00 164 104 65
-2.054584e-01 -4.658182e-01 -1.841264e+00 79 13 0
2.378874e-01 -4.566348e-01 -1.736344e+00 37 72 20
-8.817827e-02 -4.687895e-01 -1.835050e+00 73 1 1
-9.396852e-02 -4.671180e-01 -1.834540e+00 72 5 1
2.108063e-01 -4.506593e-01 -1.735984e+00 43 130 43
-2.226385e-01 -4.602039e-01 -1.844098e+00 90 30 7
2.243538e-02 -4.707656e-01 -1.847131e+00 63 28 21
-5.143639e-02 -4.601539e-01 -1.838998e+00 121 32 24
1.835153e-01 -4.384273e-01 -1.735197e+00 8 24 4
-2.313783e-01 -4.352690e-01 -1.843784e+00 69 11 0
-2.381120e-01 -4.323162e-01 -1.842641e+00 80 16 2
-2.312003e-01 -4.201612e-01 -1.841801e+00 72 13 0
-2.557656e-01 -4.206111e-01 -1.860158e+00 137 73 29
-5.434978e-02 -4.249982e-01 -1.837500e+00 75 3 1
-5.390293e-02 -4.260534e-01 -1.840070e+00 75 3 1
-2.051069e-01 -4.152384e-01 -1.837464e+00 80 13 0
-8.429630e-02 -4.213057e-01 -1.835310e+00 74 6 2
-2.053804e-01 -4.059650e-01 -1.837163e+00 79 13 0
-2.314558e-01 -4.057601e-01 -1.842451e+00 64 6 0
-2.479844e-01 -4.058013e-01 -1.845334e+00 132 68 13
-3.762659e-01 -4.056695e-01 -1.884357e+00 161 98 54
-2.223877e-01 -3.859689e-01 -1.842009e+00 81 21 1
-3.350931e-01 -3.739723e-01 -1.865940e+00 148 87 39
-3.483892e-01 -3.729038e-01 -1.870637e+00 91 33 2
-3.667668e-01 -3.709697e-01 -1.877452e+00 138 87 33
-7.607525e-02 -3.638786e-01 -1.824768e+00 115 42 32
-7.564967e-02 -3.652370e-01 -1.829834e+00 115 42 32
-3.662301e-01 -3.562057e-01 -1.873092e+00 146 89 30
-2.054473e-01 -3.558918e-01 -1.839818e+00 79 18 1
-9.782261e-02 -3.568063e-01 -1.827632e+00 69 4 2
-1.977345e-01 -3.459030e-01 -1.834414e+00 77 13 1
-2.419409e-01 -3.371598e-01 -1.842217e+00 73 11 0
-7.134356e-02 -3.414598e-01 -1.820360e+00 116 34 21
-1.974130e-01 -3.258288e-01 -1.832292e+00 71 12 2
-5.210481e-03 -3.340172e-01 -1.832957e+00 74 2 2
-2.413667e-01 -3.210075e-01 -1.838734e+00 80 16 6
-1.972462e-01 -3.156269e-01 -1.834987e+00 74 8 3
-3.963598e-01 -2.984963e-01 -1.878483e+00 121 67 20
-1.966942e-01 -2.996098e-01 -1.831338e+00 73 14 0
-7.589338e-02 -3.019539e-01 -1.821917e+00 60 2 3
-2.042642e-01 -2.934152e-01 -1.837323e+00 84 28 6
-4.451397e-02 -2.972112e-01 -1.826475e+00 58 0 1
-1.009417e-01 -2.908845e-01 -1.824690e+00 63 3 3
-9.468634e-02 -2.829510e-01 -1.819156e+00 69 4 2
-3.241505e-01 -2.528373e-01 -1.674080e+00 123 77 35
4.973195e-01 -3.124602e-01 -1.870425e+00 79 67 38
4.460599e-01 -3.043715e-01 -1.833181e+00 49 51 30
-3.709003e-01 -2.661692e-01 -1.872932e+00 115 57 3
-2.223289e-02 -2.746909e-01 -1.824819e+00 121 55 49
-3.711837e-01 -2.333102e-01 -1.871780e+00 108 57 2
-1.865303e-01 -2.354908e-01 -1.829241e+00 80 21 0
-2.251955e-01 -2.219800e-01 -1.836253e+00 145 94 26
-1.853743e-01 -2.110983e-01 -1.827244e+00 85 20 4
-1.844529e-01 -2.037239e-01 -1.821126e+00 101 40 9
-1.186041e-01 -1.983421e-01 -1.823264e+00 159 98 53
-3.029267e-01 -1.856662e-01 -1.840227e+00 100 46 0
-2.905965e-01 -1.784350e-01 -1.846710e+00 77 39 1
1.331467e-02 -1.705289e-01 -1.821293e+00 108 45 2
-2.993899e-01 -1.576140e-01 -1.845078e+00 138 86 28
-5.496961e-02 -1.655866e-01 -1.815518e+00 58 5 3
-1.427042e-01 -1.493947e-01 -1.821923e+00 118 42 4
-1.708789e-01 -1.473913e-01 -1.816158e+00 170 113 69
-1.709846e-01 -1.474753e-01 -1.816148e+00 170 113 69
-1.833001e-01 -1.404524e-01 -1.824083e+00 86 25 3
-7.631239e-02 -1.343929e-01 -1.807984e+00 126 72 20
-2.143443e-01 -1.273140e-01 -1.829704e+00 71 20 4
-1.914057e-01 -1.248059e-01 -1.823686e+00 78 32 8
-3.055348e-01 -1.145837e-01 -1.845166e+00 71 18 6
-4.105266e-01 -1.057195e-01 -1.895915e+00 134 102 56
-3.051004e-01 -1.036960e-01 -1.842575e+00 141 89 27
-2.089650e-01 -1.008615e-01 -1.828014e+00 63 7 1
-1.943141e-01 -1.012066e-01 -1.823679e+00 80 27 2
-3.698474e-01 -8.135553e-02 -1.864196e+00 105 61 3
-2.426282e-01 -7.852213e-02 -1.814048e+00 164 80 50
5.303405e-02 -8.323587e-02 -1.821972e+00 105 49 2
-1.142294e-01 -7.453292e-02 -1.815377e+00 61 8 0
-1.142857e-01 -7.441669e-02 -1.816879e+00 61 8 0
-1.309503e-01 -7.081497e-02 -1.819343e+00 123 73 27
-3.169805e-01 -5.688543e-02 -1.843875e+00 119 35 9
4.456717e-02 -6.191929e-02 -1.820576e+00 138 87 35
-1.012426e-01 -5.814171e-02 -1.816672e+00 117 30 0
-8.030938e-02 -5.738340e-02 -1.804581e+00 120 30 2
-3.195353e-01 -4.201319e-02 -1.839916e+00 122 35 5
-2.468529e-01 9.252678e-03 -1.824011e+00 135 38 3
-1.137035e-01 3.298139e-02 -1.810934e+00 43 38 38
-6.237825e-02 1.900585e-01 -1.851400e+00 102 89 98
-2.264658e-01 2.093520e-01 -1.874259e+00 95 84 88
-9.358909e-02 2.064043e-01 -1.862143e+00 44 34 42
-2.658894e-01 2.243309e-01 -1.889757e+00 44 33 45
-1.636005e-01 2.171141e-01 -1.865871e+00 100 86 90
-1.005163e-01 2.251126e-01 -1.879705e+00 48 35 44
-1.084709e-01 2.247831e-01 -1.879823e+00 50 37 46
-3.976594e-01 2.550535e-01 -1.903588e+00 57 40 16
2.428966e-01 -4.850428e-01 -1.726482e+00 4 6 1
6.891890e-01 -6.631651e-01 -1.652329e+00 166 151 112
-1.998590e-01 -6.316950e-01 -1.751490e+00 37 91 30
-3.180719e-01 -6.463720e-01 -1.780815e+00 22 81 22
-1.977253e-01 -5.886016e-01 -1.753874e+00 33 92 35
-1.805632e-01 -5.821833e-01 -1.753260e+00 35 90 30
-4.563495e-02 -5.384220e-01 -1.699151e+00 159 182 124
-5.118599e-02 -5.332023e-01 -1.716091e+00 14 105 21
-3.926887e-01 -6.730485e-01 -1.744943e+00 136 149 105
-3.969335e-01 -6.725215e-01 -1.782610e+00 28 85 33
3.655307e-01 -6.039666e-01 -1.648809e+00 59 57 41
-1.407636e-01 -3.010236e-01 -1.823932e+00 132 60 28
-1.407636e-01 -3.010236e-01 -1.823932e+00 132 60 28
-2.609755e-01 -1.979307e-01 -1.831667e+00 99 41 0
-2.691049e-01 -1.648530e-01 -1.830995e+00 96 42 0
-2.691049e-01 -1.648530e-01 -1.830995e+00 96 42 0
-1.102232e-01 -1.432191e-01 -1.818004e+00 92 45 23
-1.265794e-01 -7.322060e-02 -1.808416e+00 80 36 20
-1.273672e-01 -7.457544e-02 -1.802642e+00 80 36 20
-1.975447e-01 1.738327e-01 -1.794634e+00 52 42 59
-2.879583e-01 2.404845e-01 -1.905295e+00 52 41 58
-2.924966e-01 -6.763822e-01 -1.754209e+00 148 139 91
-2.293132e-01 -6.621176e-01 -1.773255e+00 54 71 24
-2.248595e-01 -6.171019e-01 -1.771130e+00 187 212 147
1.285396e-01 -5.159089e-01 -1.737377e+00 13 31 0
5.657098e-01 -4.663165e-01 -1.683589e+00 39 29 5
-2.652419e-01 -2.750176e-01 -1.850524e+00 68 25 1
-9.147599e-02 -1.790453e-01 -1.827760e+00 75 27 12
-3.684000e-01 -1.497142e-01 -1.872754e+00 104 66 11
-1.249527e-01 -1.319823e-01 -1.816374e+00 141 81 16
-1.017587e-01 -1.098623e-01 -1.815746e+00 94 51 16
-9.023344e-02 -9.131930e-02 -1.809473e+00 60 25 8
-9.023344e-02 -9.131930e-02 -1.809473e+00 60 25 8
-3.441320e-01 -6.774976e-01 -1.773036e+00 173 197 127
1.527178e-01 -4.987089e-01 -1.730082e+00 15 42 15
1.722395e-01 -5.009608e-01 -1.740594e+00 93 110 73
