ply
format ascii 1.0
element face 0
property list uchar int vertex_indices
element vertex 934
property float x
property float y
property float z
property uchar diffuse_red
property uchar diffuse_green
property uchar diffuse_blue
end_header
9.072974e-04 -3.331563e-01 -1.811853e+00 61 0 0
-8.762462e-03 -3.063748e-01 -1.794190e+00 57 2 0
3.951557e-01 -2.511855e-01 -1.706170e+00 196 183 143
-3.708377e-01 -2.087882e-01 -1.903248e+00 142 99 30
-3.894177e-01 1.865142e-01 -1.834998e+00 108 94 87
4.766739e-01 -7.871695e-01 -1.621593e+00 28 22 6
-3.809953e-01 -7.030379e-01 -1.882391e+00 195 183 156
-2.965112e-01 -6.775782e-01 -1.847318e+00 170 198 121
2.964048e-01 -5.877248e-01 -1.606990e+00 59 57 46
2.964048e-01 -5.877248e-01 -1.606990e+00 59 57 46
-2.029101e-01 -6.355818e-01 -1.816661e+00 32 47 12
-2.263027e-01 -6.303992e-01 -1.823905e+00 24 66 21
-6.405515e-02 -6.069311e-01 -1.781533e+00 46 49 2
-1.784601e-01 -6.023565e-01 -1.812643e+00 187 178 142
7.951728e-02 -4.993112e-01 -1.726154e+00 16 30 0
7.764385e-02 -4.823227e-01 -1.720180e+00 5 65 2
1.933282e-01 -4.272449e-01 -1.690734e+00 15 55 5
-4.516447e-02 -4.501780e-01 -1.829498e+00 77 1 1
-2.007877e-01 -4.295952e-01 -1.852960e+00 131 66 24
-2.009249e-01 -4.295148e-01 -1.851891e+00 131 66 24
-2.081936e-01 -4.227050e-01 -1.857399e+00 141 80 32
5.641381e-02 -3.390606e-01 -1.814461e+00 23 2 0
-2.593573e-01 -3.422836e-01 -1.855264e+00 85 15 0
6.202191e-02 -3.213975e-01 -1.806976e+00 202 187 158
-4.591112e-02 -2.906169e-01 -1.793312e+00 117 40 26
2.005471e-03 -2.632544e-01 -1.833951e+00 116 37 27
5.148070e-02 -2.518521e-01 -1.787642e+00 130 113 70
-3.598594e-01 -2.642907e-01 -1.883369e+00 75 31 2
-6.332203e-02 -2.176943e-01 -1.787344e+00 105 15 0
-1.278170e-01 -1.974868e-01 -1.794480e+00 161 110 71
-1.584409e-01 -1.197862e-01 -1.781110e+00 134 77 17
-4.180507e-01 -1.108573e-01 -1.882016e+00 114 52 13
-1.204495e-01 -1.092641e-01 -1.768582e+00 132 78 17
-3.143543e-01 -9.942201e-02 -1.815476e+00 156 105 48
-4.222197e-01 -8.137243e-02 -1.872557e+00 113 54 14
-5.928097e-02 -7.311324e-02 -1.762908e+00 133 86 39
-1.335248e-01 -7.555174e-02 -1.765442e+00 54 2 0
-2.005186e-01 1.971773e-01 -1.787206e+00 47 35 46
-4.496969e-01 2.041307e-01 -1.849408e+00 57 41 35
-3.788062e-01 -7.175698e-01 -1.842919e+00 171 200 162
-3.297611e-01 -7.384479e-01 -1.870428e+00 41 64 9
-3.823017e-01 -7.251020e-01 -1.873952e+00 30 65 1
2.644943e-01 -6.483203e-01 -1.617210e+00 32 29 14
2.646922e-01 -6.394198e-01 -1.604970e+00 54 48 34
2.939859e-01 -6.385892e-01 -1.613804e+00 65 62 52
2.034851e-01 -6.779896e-01 -1.715384e+00 88 78 51
-2.973522e-01 -6.889395e-01 -1.852871e+00 171 193 147
-2.364164e-01 -6.718561e-01 -1.832633e+00 30 66 23
2.393157e-01 -6.110268e-01 -1.648358e+00 37 37 29
-2.370164e-01 -6.305729e-01 -1.831062e+00 188 181 150
6.650734e-01 -5.679311e-01 -1.538756e+00 51 49 30
6.553441e-01 -5.341771e-01 -1.531049e+00 181 168 126
-6.283535e-02 -5.748289e-01 -1.772833e+00 51 109 50
1.496714e-01 -5.633296e-01 -1.735939e+00 23 16 6
4.501672e-01 -5.203164e-01 -1.570306e+00 67 64 54
3.027744e-03 -5.555394e-01 -1.751853e+00 154 182 139
2.310522e-01 -5.158753e-01 -1.669759e+00 43 43 35
3.727390e-02 -5.297606e-01 -1.742621e+00 43 76 25
2.826406e-01 -4.802080e-01 -1.657379e+00 55 52 45
1.806645e-01 -4.626446e-01 -1.691414e+00 182 211 163
1.843530e-01 -4.610610e-01 -1.689107e+00 55 76 30
-2.461453e-01 -4.838451e-01 -1.879171e+00 164 104 65
-1.990521e-01 -4.697558e-01 -1.863366e+00 79 13 0
2.217430e-01 -4.392016e-01 -1.681451e+00 37 72 20
-8.362444e-02 -4.640392e-01 -1.837186e+00 73 1 1
-8.960732e-02 -4.629229e-01 -1.837500e+00 72 5 1
1.943998e-01 -4.355493e-01 -1.685203e+00 43 130 43
-2.161929e-01 -4.651579e-01 -1.868415e+00 90 30 7
2.792951e-02 -4.552618e-01 -1.829877e+00 63 28 21
-4.755751e-02 -4.518861e-01 -1.833489e+00 121 32 24
1.661877e-01 -4.257628e-01 -1.687885e+00 8 24 4
-2.274702e-01 -4.411242e-01 -1.866617e+00 69 11 0
-2.346345e-01 -4.388603e-01 -1.866216e+00 80 16 2
-2.291824e-01 -4.263320e-01 -1.862725e+00 72 13 0
-2.505175e-01 -4.261687e-01 -1.884983e+00 137 73 29
-5.415745e-02 -4.174257e-01 -1.828596e+00 75 3 1
-5.326255e-02 -4.180336e-01 -1.830980e+00 75 3 1
-2.045280e-01 -4.199651e-01 -1.853457e+00 80 13 0
-8.462331e-02 -4.164474e-01 -1.830979e+00 74 6 2
-2.058212e-01 -4.107578e-01 -1.851938e+00 79 13 0
-2.308216e-01 -4.119212e-01 -1.861602e+00 64 6 0
-2.467232e-01 -4.129282e-01 -1.867371e+00 132 68 13
-3.674034e-01 -4.175697e-01 -1.927236e+00 161 98 54
-2.239590e-01 -3.915429e-01 -1.857128e+00 81 21 1
-3.329348e-01 -3.853087e-01 -1.898195e+00 148 87 39
-3.454106e-01 -3.846245e-01 -1.904766e+00 91 33 2
-3.627239e-01 -3.832530e-01 -1.914464e+00 138 87 33
-8.407725e-02 -3.601010e-01 -1.812123e+00 115 42 32
-8.268604e-02 -3.607160e-01 -1.817303e+00 115 42 32
-3.644199e-01 -3.691334e-01 -1.908230e+00 146 89 30
-2.106423e-01 -3.605327e-01 -1.848312e+00 79 18 1
-1.058813e-01 -3.544222e-01 -1.817868e+00 69 4 2
-2.048934e-01 -3.507379e-01 -1.840459e+00 77 13 1
-2.483402e-01 -3.444890e-01 -1.854551e+00 73 11 0
-8.231770e-02 -3.380476e-01 -1.804479e+00 116 34 21
-2.069773e-01 -3.310057e-01 -1.836056e+00 71 12 2
-1.562092e-02 -3.234623e-01 -1.804271e+00 74 2 2
-2.500028e-01 -3.288692e-01 -1.849055e+00 80 16 6
-2.074616e-01 -3.204547e-01 -1.837119e+00 74 8 3
-3.992992e-01 -3.133826e-01 -1.911382e+00 121 67 20
-2.091561e-01 -3.049653e-01 -1.831420e+00 73 14 0
-9.073880e-02 -2.988265e-01 -1.801647e+00 60 2 3
-2.163388e-01 -2.985790e-01 -1.837827e+00 84 28 6
-5.942211e-02 -2.909134e-01 -1.800063e+00 58 0 1
-1.162566e-01 -2.894470e-01 -1.807329e+00 63 3 3
-1.116985e-01 -2.818316e-01 -1.800025e+00 69 4 2
-3.656455e-01 -2.909331e-01 -1.693224e+00 123 77 35
4.845358e-01 -2.558759e-01 -1.750081e+00 79 67 38
4.267331e-01 -2.573022e-01 -1.721057e+00 49 51 30
-3.783239e-01 -2.799721e-01 -1.897066e+00 115 57 3
-3.993917e-02 -2.669093e-01 -1.791779e+00 121 55 49
-3.821667e-01 -2.475090e-01 -1.891712e+00 108 57 2
-2.060661e-01 -2.405992e-01 -1.819580e+00 80 21 0
-2.446393e-01 -2.293107e-01 -1.831295e+00 145 94 26
-2.077701e-01 -2.165007e-01 -1.814331e+00 85 20 4
-2.085979e-01 -2.099241e-01 -1.807540e+00 101 40 9
-1.435697e-01 -1.989218e-01 -1.797391e+00 159 98 53
-3.247038e-01 -1.989457e-01 -1.843803e+00 100 46 0
-3.122110e-01 -1.898524e-01 -1.847110e+00 77 39 1
-1.602164e-02 -1.607632e-01 -1.769270e+00 108 45 2
-3.233075e-01 -1.701166e-01 -1.844154e+00 138 86 28
-8.513993e-02 -1.622063e-01 -1.774730e+00 58 5 3
-1.727241e-01 -1.523264e-01 -1.794213e+00 118 42 4
-2.017998e-01 -1.534469e-01 -1.793065e+00 170 113 69
-2.018747e-01 -1.535269e-01 -1.793141e+00 170 113 69
-2.135443e-01 -1.464553e-01 -1.801929e+00 86 25 3
-1.107012e-01 -1.339050e-01 -1.767224e+00 126 72 20
-2.447512e-01 -1.351425e-01 -1.811023e+00 71 20 4
-2.232597e-01 -1.316108e-01 -1.800897e+00 78 32 8
-3.338212e-01 -1.278209e-01 -1.839861e+00 71 18 6
-4.301085e-01 -1.206836e-01 -1.905277e+00 134 102 56
-3.349237e-01 -1.173145e-01 -1.835851e+00 141 89 27
-2.424359e-01 -1.086276e-01 -1.805073e+00 63 7 1
-2.285895e-01 -1.083843e-01 -1.798352e+00 80 27 2
-3.976037e-01 -9.758567e-02 -1.864397e+00 105 61 3
-2.803754e-01 -9.139301e-02 -1.793380e+00 164 80 50
1.444302e-02 -7.046787e-02 -1.752246e+00 105 49 2
-1.533425e-01 -7.641540e-02 -1.773286e+00 61 8 0
-1.531716e-01 -7.609588e-02 -1.774727e+00 61 8 0
-1.696631e-01 -7.353499e-02 -1.779532e+00 123 73 27
-3.512674e-01 -7.171172e-02 -1.832725e+00 119 35 9
3.692674e-03 -5.004632e-02 -1.749878e+00 138 87 35
-1.419667e-01 -5.885815e-02 -1.770272e+00 117 30 0
-1.232086e-01 -5.803188e-02 -1.754840e+00 120 30 2
-3.559145e-01 -5.777633e-02 -1.827226e+00 122 35 5
-2.919671e-01 -2.962192e-03 -1.793245e+00 135 38 3
-1.646659e-01 3.005017e-02 -1.755320e+00 43 38 38
-1.240514e-01 1.949338e-01 -1.764823e+00 102 89 98
-2.844218e-01 2.034996e-01 -1.812578e+00 95 84 88
-1.547164e-01 2.105387e-01 -1.779381e+00 44 34 42
-3.223409e-01 2.170779e-01 -1.832292e+00 44 33 45
-2.244806e-01 2.155142e-01 -1.793071e+00 100 86 90
-1.609599e-01 2.300702e-01 -1.794300e+00 48 35 44
-1.690594e-01 2.287758e-01 -1.795760e+00 50 37 46
-4.527991e-01 2.375349e-01 -1.862831e+00 57 40 16
2.285769e-01 -4.685305e-01 -1.674851e+00 4 6 1
6.653391e-01 -6.155435e-01 -1.541026e+00 166 151 112
-1.907785e-01 -6.470138e-01 -1.794382e+00 37 91 30
-3.016558e-01 -6.678668e-01 -1.847145e+00 22 81 22
-1.925431e-01 -6.043721e-01 -1.792696e+00 33 92 35
-1.763776e-01 -5.963835e-01 -1.787719e+00 35 90 30
-5.539920e-02 -5.498950e-01 -1.706532e+00 159 182 124
-5.916955e-02 -5.421712e-01 -1.722224e+00 14 105 21
-3.785782e-01 -7.048588e-01 -1.826796e+00 136 149 105
-3.768949e-01 -7.000779e-01 -1.865810e+00 28 85 33
3.469723e-01 -5.864999e-01 -1.589701e+00 59 57 41
-1.546697e-01 -3.029261e-01 -1.815248e+00 132 60 28
-1.546697e-01 -3.029261e-01 -1.815248e+00 132 60 28
-2.833059e-01 -2.089253e-01 -1.830065e+00 99 41 0
-2.948722e-01 -1.767806e-01 -1.826232e+00 96 42 0
-2.948722e-01 -1.767806e-01 -1.826232e+00 96 42 0
-1.421359e-01 -1.443430e-01 -1.782343e+00 92 45 23
-1.667395e-01 -7.697099e-02 -1.768777e+00 80 36 20
-1.686261e-01 -7.974171e-02 -1.761543e+00 80 36 20
-2.649854e-01 1.599311e-01 -1.734328e+00 52 42 59
-3.432293e-01 2.315472e-01 -1.846329e+00 52 41 58
-2.774617e-01 -6.990945e-01 -1.819500e+00 148 139 91
-2.132055e-01 -6.772098e-01 -1.825873e+00 54 71 24
-2.137735e-01 -6.323720e-01 -1.817578e+00 187 212 147
1.201166e-01 -5.070317e-01 -1.709155e+00 13 31 0
5.338397e-01 -4.286690e-01 -1.571101e+00 39 29 5
-2.765041e-01 -2.832938e-01 -1.858100e+00 68 25 1
-1.183007e-01 -1.770833e-01 -1.793024e+00 75 27 12
-3.877509e-01 -1.642090e-01 -1.880534e+00 104 66 11
-1.581280e-01 -1.346617e-01 -1.781715e+00 141 81 16
-1.371702e-01 -1.104247e-01 -1.776492e+00 94 51 16
-1.286245e-01 -9.183025e-02 -1.766190e+00 60 25 8
-1.286245e-01 -9.183025e-02 -1.766190e+00 60 25 8
-3.255440e-01 -7.021787e-01 -1.847975e+00 173 197 127
1.413422e-01 -4.891221e-01 -1.696000e+00 15 42 15
1.624106e-01 -4.881924e-01 -1.702986e+00 93 110 73
-2.865380e-01 -4.589744e-01 -1.889354e+00 86 20 0
-3.043396e-01 -4.567503e-01 -1.905365e+00 94 41 2
-3.043396e-01 -4.567503e-01 -1.905365e+00 94 41 2
-5.002580e-02 -4.338354e-01 -1.815084e+00 78 4 3
-3.580395e-01 -4.213842e-01 -1.921224e+00 96 41 3
-1.971282e-01 -3.812828e-01 -1.843532e+00 131 65 13
-2.385978e-01 -3.611419e-01 -1.851059e+00 77 25 0
-5.776543e-02 -3.536939e-01 -1.819825e+00 60 0 0
-6.816637e-02 -3.501445e-01 -1.811085e+00 126 33 19
-1.105415e-01 -3.449962e-01 -1.813686e+00 137 39 20
-1.973619e-01 -3.436742e-01 -1.828547e+00 107 44 3
-4.902916e-02 -3.374472e-01 -1.814697e+00 66 7 5
-6.356619e-02 -3.324026e-01 -1.794872e+00 124 31 17
-6.356619e-02 -3.324026e-01 -1.794872e+00 124 31 17
-3.485382e-02 -3.305482e-01 -1.797027e+00 60 2 0
-5.738429e-02 -3.235984e-01 -1.798620e+00 73 1 1
-5.738429e-02 -3.235984e-01 -1.798620e+00 73 1 1
-4.600223e-02 -3.211422e-01 -1.801275e+00 64 3 2
1.215368e-01 -2.863453e-01 -1.784114e+00 37 31 19
-3.806139e-01 -2.273996e-01 -1.885857e+00 100 57 4
-3.515371e-01 -1.728512e-01 -1.856657e+00 139 91 28
-1.000967e-01 -1.302781e-01 -1.769728e+00 130 72 9
-4.318952e-01 -1.075851e-01 -1.912902e+00 135 95 52
-1.782834e-01 -9.492513e-02 -1.770138e+00 170 113 58
2.419503e-01 -6.216580e-01 -1.628014e+00 42 42 34
2.467777e-01 -6.247703e-01 -1.632984e+00 42 42 34
-2.506343e-01 -6.583629e-01 -1.831610e+00 40 58 2
2.674880e-01 -5.791523e-01 -1.622255e+00 78 79 68
6.664877e-01 -5.483007e-01 -1.538776e+00 97 89 60
6.772335e-02 -5.316488e-01 -1.727774e+00 123 139 92
1.594963e-01 -4.810774e-01 -1.696892e+00 12 54 5
5.335379e-01 -4.496542e-01 -1.548569e+00 63 58 47
3.236860e-01 -4.516603e-01 -1.645756e+00 61 61 51
2.209418e-01 -4.427550e-01 -1.670818e+00 33 79 21
-3.306297e-01 -4.660776e-01 -1.911744e+00 168 109 67
-2.349111e-01 -4.124829e-01 -1.858439e+00 136 75 24
-1.819624e-01 -3.607769e-01 -1.835733e+00 174 110 66
-1.540492e-01 -3.295149e-01 -1.822687e+00 117 27 1
-1.437533e-01 -2.989850e-01 -1.808794e+00 115 24 0
-4.173086e-02 -2.650056e-01 -1.799144e+00 66 0 0
-3.709036e-01 -2.546558e-01 -1.891195e+00 97 46 5
-3.593496e-01 -2.324410e-01 -1.905743e+00 151 99 32
-2.085518e-01 -2.168543e-01 -1.808119e+00 91 26 2
-3.470386e-01 -2.106226e-01 -1.859119e+00 80 38 0
-1.977042e-01 -1.963947e-01 -1.800335e+00 165 118 63
-7.477148e-03 -1.824028e-01 -1.764072e+00 145 59 36
-2.147020e-01 -1.205658e-01 -1.780146e+00 141 83 24
-2.805250e-01 -1.054397e-01 -1.791183e+00 159 104 44
-4.503994e-02 -6.964169e-02 -1.749076e+00 76 32 2
-7.937000e-02 -4.519822e-02 -1.759047e+00 120 33 2
-3.420567e-01 1.758617e-01 -1.819811e+00 116 106 96
-2.162282e-01 2.083430e-01 -1.783430e+00 102 91 96
2.819323e-01 -7.698854e-01 -1.666061e+00 67 65 50
-4.126390e-01 -7.573784e-01 -1.876558e+00 186 183 142
-3.759431e-01 -7.430023e-01 -1.874922e+00 46 98 46
-3.159600e-01 -6.967166e-01 -1.818263e+00 156 176 134
2.826935e-01 -6.320347e-01 -1.603412e+00 61 59 46
-3.269064e-01 -6.942290e-01 -1.840675e+00 25 75 1
-3.625762e-01 -7.021975e-01 -1.862892e+00 41 103 33
-3.299533e-01 -6.761209e-01 -1.823426e+00 68 150 65
-3.042446e-01 -6.667178e-01 -1.815221e+00 53 96 47
-3.112135e-01 -6.819692e-01 -1.851578e+00 177 211 153
-2.634738e-01 -6.596413e-01 -1.837659e+00 171 213 147
2.529522e-01 -5.773193e-01 -1.626679e+00 22 22 14
2.436941e-01 -5.719283e-01 -1.630147e+00 78 76 63
-9.409264e-02 -5.836175e-01 -1.768280e+00 26 78 3
8.042288e-02 -5.290330e-01 -1.721699e+00 100 102 61
-8.107177e-03 -5.277527e-01 -1.737031e+00 49 140 45
5.423404e-02 -4.858678e-01 -1.726628e+00 44 78 14
1.887010e-01 -4.654519e-01 -1.692059e+00 152 178 134
-1.886628e-01 -4.684253e-01 -1.858472e+00 136 71 23
-2.320029e-01 -4.356751e-01 -1.870092e+00 142 80 36
-2.250926e-01 -4.280944e-01 -1.863345e+00 128 68 23
-2.512222e-01 -4.220193e-01 -1.870160e+00 144 75 23
-2.407192e-01 -4.216921e-01 -1.873215e+00 140 81 38
4.223783e-01 -3.842693e-01 -1.616893e+00 58 55 46
-4.035677e-01 -4.268193e-01 -1.973394e+00 127 80 38
-1.990295e-01 -4.064400e-01 -1.855824e+00 82 22 2
-1.627928e-01 -3.889264e-01 -1.837614e+00 160 72 42
-2.084779e-01 -3.889085e-01 -1.845273e+00 88 27 6
-2.018813e-01 -3.814225e-01 -1.847963e+00 78 12 1
-2.098930e-01 -3.742332e-01 -1.841648e+00 74 7 1
-8.748942e-02 -3.578455e-01 -1.828489e+00 119 36 21
-3.272008e-01 -3.510971e-01 -1.886363e+00 120 47 4
-3.269668e-01 -3.510436e-01 -1.883282e+00 120 47 4
-1.755740e-01 -3.417618e-01 -1.831440e+00 157 68 40
-1.800269e-02 -3.346416e-01 -1.798022e+00 64 2 1
-3.498435e-02 -3.274027e-01 -1.800860e+00 70 4 2
-2.668857e-01 -3.252934e-01 -1.847135e+00 106 39 8
-1.529483e-02 -3.063486e-01 -1.790293e+00 118 38 28
-2.621973e-01 -3.076200e-01 -1.851076e+00 141 82 18
-2.164889e-01 -3.052971e-01 -1.835814e+00 79 20 0
-1.713808e-01 -2.981670e-01 -1.811585e+00 132 37 12
-1.055907e-01 -2.819492e-01 -1.798619e+00 66 6 7
-5.755361e-02 -2.704743e-01 -1.802752e+00 123 41 24
3.158074e-03 -2.671502e-01 -1.788473e+00 113 34 22
-2.938410e-01 -2.744363e-01 -1.835108e+00 144 89 33
-3.283384e-01 -2.743052e-01 -1.868443e+00 110 47 6
-3.283384e-01 -2.743052e-01 -1.868443e+00 110 47 6
-3.268847e-01 -2.686764e-01 -1.864079e+00 111 49 0
3.306643e-01 -2.361571e-01 -1.720489e+00 84 80 66
-2.078006e-01 -2.370697e-01 -1.815474e+00 137 86 20
-2.318143e-01 -2.278673e-01 -1.815391e+00 139 90 22
-9.407763e-02 -2.229374e-01 -1.780239e+00 152 57 32
-1.395956e-01 -2.169935e-01 -1.789338e+00 159 73 39
-2.144125e-01 -2.122348e-01 -1.814923e+00 146 90 24
-3.430009e-01 -2.086742e-01 -1.854346e+00 148 102 44
-3.378465e-01 -1.969578e-01 -1.851524e+00 107 56 2
-3.518453e-01 -1.964471e-01 -1.862831e+00 102 49 0
-3.493906e-01 -1.822182e-01 -1.856416e+00 92 51 4
-1.003721e-01 -1.726491e-01 -1.774470e+00 70 17 0
-1.958711e-01 -1.732043e-01 -1.800014e+00 110 47 4
-3.727158e-01 -1.551296e-01 -1.857219e+00 110 60 0
3.218257e-02 -1.258505e-01 -1.779238e+00 152 92 47
-3.010670e-01 -1.311766e-01 -1.827596e+00 93 39 8
-3.034867e-01 -1.278660e-01 -1.825358e+00 144 96 41
-3.651867e-01 -1.269257e-01 -1.845867e+00 101 57 6
-1.779238e-01 -1.219564e-01 -1.777996e+00 125 40 9
-9.590282e-02 -8.998525e-02 -1.753982e+00 58 12 2
-3.885211e-01 -9.014280e-02 -1.856426e+00 118 66 4
-7.919958e-02 -8.530485e-02 -1.754379e+00 67 13 6
-3.945347e-01 -8.443320e-02 -1.862252e+00 101 53 3
-3.577312e-02 -6.563660e-02 -1.746780e+00 61 20 0
-3.768968e-01 -7.077064e-02 -1.850310e+00 157 81 49
-3.738774e-01 -6.835987e-02 -1.846922e+00 126 43 13
-3.577409e-01 -5.875480e-02 -1.836878e+00 123 42 7
-3.571837e-01 -6.038050e-02 -1.831867e+00 123 42 7
1.625434e-02 -2.277136e-02 -1.753441e+00 97 50 6
-3.386992e-01 1.251869e-01 -1.742501e+00 43 35 49
-2.692620e-01 2.030987e-01 -1.811497e+00 100 88 93
-2.580576e-01 1.997626e-01 -1.802694e+00 54 42 52
-4.586161e-01 2.167082e-01 -1.881924e+00 97 84 74
-4.300308e-01 2.754345e-01 -1.878333e+00 175 167 121
-1.401782e-01 2.710334e-01 -1.776511e+00 75 65 73
-3.681322e-01 -1.927962e-01 -1.885217e+00 126 72 0
-3.309006e-01 -6.668225e-01 -1.817239e+00 28 111 27
-2.022317e-01 -6.532407e-01 -1.808145e+00 20 100 19
-1.586501e-02 -5.625399e-01 -1.747384e+00 28 92 23
-2.255944e-01 -6.722370e-01 -1.835396e+00 168 188 130
5.802757e-01 -3.981682e-01 -1.639090e+00 201 185 140
-2.740918e-01 -6.926353e-01 -1.823707e+00 54 98 33
-8.192968e-02 -1.974539e-01 -1.789737e+00 136 23 3
-1.546353e-01 -3.028783e-01 -1.815285e+00 137 63 24
-2.114519e-01 -3.019978e-01 -1.836688e+00 97 40 3
-1.141805e-01 -1.395859e-01 -1.772638e+00 96 42 11
-3.893680e-01 -5.631026e-02 -1.850096e+00 145 49 11
-3.893680e-01 -5.631026e-02 -1.850096e+00 145 49 11
-2.946917e-01 -6.654329e-01 -1.799268e+00 31 98 40
-5.004561e-02 -5.911298e-01 -1.762709e+00 55 75 4
-8.257414e-02 -3.438517e-01 -1.841175e+00 131 30 12
-2.037567e-01 -3.063520e-01 -1.829743e+00 149 92 11
-2.952796e-02 -2.791331e-01 -1.797537e+00 66 6 7
-3.028520e-01 -2.793594e-01 -1.848564e+00 93 40 6
-1.995908e-02 -2.354648e-01 -1.778125e+00 155 59 34
-1.196323e-01 -1.249509e-01 -1.762659e+00 90 37 6
-3.268877e-03 -7.000219e-02 -1.763917e+00 103 52 3
-3.621748e-01 -6.630837e-02 -1.837608e+00 147 48 16
-3.691566e-01 -7.092446e-01 -1.835028e+00 162 191 114
-3.045094e-01 -6.990833e-01 -1.821727e+00 152 169 108
-3.056687e-01 -6.931538e-01 -1.821121e+00 27 80 2
2.804645e-01 -6.491417e-01 -1.627088e+00 36 32 5
1.656462e-01 -5.801630e-01 -1.746474e+00 20 14 2
1.656462e-01 -5.801630e-01 -1.746474e+00 20 14 2
-2.621254e-01 -4.838841e-01 -1.890255e+00 173 115 68
2.168587e-01 -4.178053e-01 -1.666440e+00 150 112 60
3.280893e-01 -3.848210e-01 -1.656218e+00 108 103 81
3.223212e-01 -3.837605e-01 -1.651177e+00 108 103 81
-7.089812e-02 -2.391347e-01 -1.773521e+00 159 69 37
-2.076419e-01 -2.155851e-01 -1.817519e+00 108 46 0
-3.793545e-01 -1.822273e-01 -1.867330e+00 122 70 0
-4.724658e-02 -1.466147e-01 -1.775594e+00 82 25 2
-3.833908e-01 -1.507883e-01 -1.865105e+00 118 69 1
-5.163176e-02 -1.053609e-01 -1.778820e+00 84 22 0
-1.637449e-01 -9.340350e-02 -1.768658e+00 71 9 4
-1.648549e-01 -9.394496e-02 -1.764448e+00 71 9 4
-5.290168e-02 -4.277031e-02 -1.749934e+00 171 117 55
-4.209522e-01 1.929255e-01 -1.837733e+00 113 96 92
-3.996015e-01 -7.041225e-01 -1.839785e+00 173 204 146
-3.105024e-01 -6.843784e-01 -1.855065e+00 182 224 160
-2.570614e-01 -6.716624e-01 -1.851731e+00 51 103 46
-2.323489e-01 -6.143125e-01 -1.793066e+00 187 208 170
-1.025232e-01 -5.581933e-01 -1.767183e+00 65 101 54
6.569670e-02 -5.259511e-01 -1.731779e+00 24 80 4
6.183700e-01 -4.729497e-01 -1.584001e+00 44 32 10
-2.362217e-01 -4.327589e-01 -1.864493e+00 100 33 1
-3.209835e-01 -4.324839e-01 -1.913021e+00 152 91 24
-2.117458e-01 -3.914012e-01 -1.846396e+00 143 84 23
-1.777978e-01 -3.277924e-01 -1.827926e+00 167 77 42
-3.749685e-01 -3.130493e-01 -1.914809e+00 120 60 2
-3.870324e-02 -2.287317e-01 -1.781615e+00 151 62 34
-3.870324e-02 -2.287317e-01 -1.781615e+00 151 62 34
3.807949e-03 -1.543710e-01 -1.779448e+00 155 86 43
-3.899793e-01 -1.614446e-01 -1.871564e+00 112 71 2
-3.225271e-01 -1.582015e-01 -1.830957e+00 154 107 36
-1.734581e-01 -1.364627e-01 -1.779916e+00 180 124 64
-2.840915e-01 -1.311066e-01 -1.811547e+00 155 105 47
-4.298705e-01 -1.088521e-01 -1.899859e+00 144 109 59
-2.629203e-01 -7.405201e-03 -1.796609e+00 189 80 38
-2.950797e-01 2.439905e-01 -1.970157e+00 43 43 55
-4.421585e-01 2.155358e-01 -1.823176e+00 67 51 30
2.368685e-01 -7.329708e-01 -1.652548e+00 77 73 44
-3.968428e-01 -7.300014e-01 -1.839503e+00 24 76 2
-2.378142e-01 -6.554905e-01 -1.799666e+00 55 102 56
-1.245007e-01 -5.874409e-01 -1.774850e+00 54 130 58
1.450085e-01 -5.258865e-01 -1.724082e+00 59 53 37
1.377810e-01 -4.895448e-01 -1.700013e+00 40 83 38
1.211482e-01 -4.686873e-01 -1.709602e+00 38 90 6
1.246731e-01 -4.438436e-01 -1.685012e+00 63 113 45
-4.109338e-02 -4.359204e-01 -1.825267e+00 128 33 22
-3.975617e-02 -4.369770e-01 -1.829530e+00 128 33 22
-2.919473e-02 -4.318073e-01 -1.816952e+00 117 31 19
-2.404468e-01 -4.349371e-01 -1.866244e+00 154 91 42
-2.093257e-01 -4.349236e-01 -1.864785e+00 118 47 4
-3.049904e-02 -4.253046e-01 -1.813163e+00 119 33 18
-8.042997e-02 -3.640345e-01 -1.825074e+00 136 43 31
-1.617140e-01 -3.539481e-01 -1.832603e+00 173 78 45
-3.104400e-02 -3.323372e-01 -1.822549e+00 124 42 28
-3.166474e-02 -3.324225e-01 -1.820347e+00 124 42 28
-1.052267e-01 -2.865724e-01 -1.801584e+00 77 3 2
-2.586989e-02 -2.826750e-01 -1.803872e+00 76 1 0
-1.056383e-02 -2.639576e-01 -1.801427e+00 128 39 25
-3.213126e-01 -2.324246e-01 -1.848313e+00 109 53 4
-1.300477e-01 -2.152334e-01 -1.792201e+00 172 75 40
-2.082839e-01 -2.093176e-01 -1.812500e+00 116 56 2
-8.901190e-03 -1.854129e-01 -1.780564e+00 153 64 38
-3.603863e-01 -1.901706e-01 -1.864919e+00 154 103 33
-3.193160e-01 -1.542833e-01 -1.837241e+00 119 70 2
-2.463065e-01 -1.156072e-01 -1.787329e+00 145 81 20
-1.625945e-01 -9.719535e-02 -1.767907e+00 73 14 0
-3.556806e-01 -7.105287e-02 -1.839645e+00 164 85 51
-2.755718e-02 -6.104376e-02 -1.733038e+00 147 94 31
1.551134e-02 -4.656273e-02 -1.737604e+00 171 111 57
1.557844e-02 -1.779301e-02 -1.750905e+00 121 68 7
-1.888975e-01 2.089471e-02 -1.735533e+00 53 52 64
-1.888975e-01 2.089471e-02 -1.735533e+00 53 52 64
-1.726877e-01 3.088234e-02 -1.745880e+00 13 10 22
-1.554533e-01 1.317192e-01 -1.734781e+00 50 50 62
-1.081592e-01 3.100231e-01 -1.809443e+00 97 84 92
-2.545991e-01 2.977268e-01 -1.833105e+00 113 101 101
-8.982647e-02 -2.971989e-02 -1.748790e+00 143 27 2
-5.376419e-02 -5.413157e-01 -1.742496e+00 33 135 33
-3.148102e-01 -6.496880e-01 -1.806741e+00 31 92 22
-1.535605e-01 -5.994877e-01 -1.763219e+00 182 191 133
-2.269082e-01 -1.245056e-01 -1.792248e+00 155 88 3
6.669726e-02 9.550462e-02 -1.795649e+00 157 67 20
-7.397529e-02 -3.608751e-01 -1.824215e+00 70 1 2
-3.715367e-01 -1.329075e-01 -1.872619e+00 153 105 28
-6.185915e-02 -1.174928e-01 -1.777254e+00 139 76 5
-3.308327e-01 -9.571699e-02 -1.765456e+00 172 103 67
1.851085e-01 -6.280174e-01 -1.701797e+00 21 18 2
4.804680e-02 -4.428474e-01 -1.863780e+00 34 0 0
-2.363698e-01 -3.112465e-01 -1.856448e+00 163 104 27
-1.552053e-02 -2.913034e-01 -1.815438e+00 79 0 1
1.407764e-02 -2.594192e-01 -1.802577e+00 84 0 3
-1.118585e-01 -2.159527e-01 -1.795551e+00 167 74 38
-1.118585e-01 -2.159527e-01 -1.795551e+00 167 74 38
5.336703e-02 -1.527400e-01 -1.801197e+00 173 108 66
-2.955209e-01 -9.572492e-02 -1.810591e+00 141 38 7
-1.084113e-01 -3.371564e-01 -1.815136e+00 79 0 4
-2.874003e-01 -2.244499e-01 -1.821739e+00 88 44 0
-1.970391e-01 -2.091966e-01 -1.827667e+00 149 93 26
-4.226038e-01 -5.648795e-02 -1.868276e+00 129 61 13
-1.163909e-01 -5.073479e-02 -1.775049e+00 137 42 2
-1.901575e-01 -1.058125e-02 -1.482262e+00 41 43 56
-2.126321e-01 -6.184590e-01 -1.772005e+00 48 122 53
1.534508e-01 -5.971690e-01 -1.738237e+00 44 37 15
-7.015985e-02 -5.577015e-01 -1.735120e+00 56 103 45
5.540667e-02 -4.960496e-01 -1.706897e+00 125 195 112
1.402275e-01 -4.633552e-01 -1.700506e+00 57 118 34
2.145150e-01 -4.190496e-01 -1.669119e+00 144 120 56
3.972609e-02 -4.424561e-01 -1.858961e+00 84 28 21
-1.836173e-01 -3.958922e-01 -1.835487e+00 149 85 22
-3.961602e-01 -3.107602e-01 -1.937206e+00 123 43 0
-1.971301e-01 -2.239102e-01 -1.821003e+00 150 100 32
-4.198836e-01 -1.270265e-01 -1.908864e+00 166 101 53
-1.257605e-01 -9.199560e-02 -1.774948e+00 75 27 8
-3.715733e-01 2.202984e-01 -1.839875e+00 51 36 48
-1.559019e-01 2.438377e-01 -1.814463e+00 61 44 55
-3.773152e-01 -7.069761e-01 -1.815248e+00 21 107 26
-2.493990e-02 -4.221536e-01 -1.871000e+00 140 35 15
-1.254579e-01 -3.581694e-01 -1.834929e+00 105 21 12
-5.985282e-02 -1.258613e-01 -1.774476e+00 76 18 0
-3.710753e-01 -8.560725e-02 -1.842322e+00 184 139 72
1.250260e-01 -5.103344e-01 -1.853098e+00 62 55 41
2.369242e-01 -4.459528e-01 -1.669368e+00 88 77 60
-2.070873e-01 -3.909377e-01 -1.853636e+00 82 14 0
-2.294779e-01 -3.583344e-01 -1.833208e+00 101 37 5
-2.298107e-01 -3.451346e-01 -1.842635e+00 103 40 3
-2.716829e-01 -2.964524e-01 -1.437232e+00 93 24 15
-8.038712e-02 -1.661642e-01 -1.782905e+00 143 88 23
-1.178522e-01 -6.380754e-01 -1.773773e+00 198 174 134
-1.277164e-02 -5.291851e-01 -1.797889e+00 184 161 118
-2.018835e-01 -6.060588e-01 -1.784265e+00 25 120 26
-1.596328e-01 -3.000699e-01 -1.816311e+00 194 113 76
-2.552073e-01 -6.263647e-01 -1.794232e+00 27 113 30
3.359141e-01 -5.367261e-01 -1.543527e+00 72 71 49
3.052057e-01 -5.529447e-01 -1.549444e+00 66 65 46
3.052057e-01 -5.529447e-01 -1.549444e+00 66 65 46
-4.015994e-02 -5.552132e-01 -1.732578e+00 19 109 13
2.052623e-02 -4.939693e-01 -1.686886e+00 45 137 33
-3.720889e-01 -6.914419e-01 -1.815495e+00 29 117 4
-2.888438e-01 -6.925453e-01 -1.807027e+00 148 143 90
6.055847e-01 -6.326668e-01 -1.531244e+00 67 62 20
5.522964e-02 -5.132423e-01 -1.693003e+00 33 59 6
2.602911e-01 -2.371796e-01 -1.802742e+00 42 35 20
2.022988e-02 -1.710096e-02 -1.785071e+00 116 67 12
-4.106967e-01 -7.087392e-01 -1.823438e+00 28 105 18
-3.345003e-01 -7.075519e-01 -1.813075e+00 128 145 79
-3.512751e-01 -6.974966e-01 -1.808652e+00 25 101 12
1.860133e-01 -5.593732e-01 -1.626688e+00 69 67 52
1.860133e-01 -5.593732e-01 -1.626688e+00 69 67 52
-2.097401e-01 -4.946405e-01 -1.895514e+00 173 107 61
-1.062216e-01 -1.933454e-01 -1.790366e+00 173 121 72
-2.207798e-01 -1.439636e-01 -1.794890e+00 166 110 28
2.438788e-04 -1.008747e-01 -1.771989e+00 120 65 7
-1.639798e-01 1.953539e-01 -1.772055e+00 57 45 69
-3.789229e-01 -7.278145e-01 -1.825979e+00 114 141 79
-4.117788e-01 -7.025734e-01 -1.822474e+00 62 114 23
2.268404e-01 -6.089711e-01 -1.561181e+00 67 67 55
-1.501435e-01 -5.830945e-01 -1.756723e+00 114 201 103
-1.501435e-01 -5.830945e-01 -1.756723e+00 114 201 103
-4.461159e-02 -5.437573e-01 -1.729186e+00 94 185 86
-7.177800e-03 -5.060513e-01 -1.726415e+00 200 211 168
3.962174e-02 -4.856883e-01 -1.715978e+00 203 223 162
8.490780e-02 -4.648064e-01 -1.717810e+00 23 19 0
1.382692e-01 -4.429568e-01 -1.707453e+00 19 12 0
1.806900e-01 -4.229960e-01 -1.674806e+00 17 82 19
-2.276216e-01 -4.021715e-01 -1.866254e+00 150 78 18
-2.544265e-01 -3.642666e-01 -1.879775e+00 105 34 3
-1.339355e-01 -1.982739e-01 -1.803715e+00 177 116 66
-4.161562e-01 -7.031989e-01 -1.823770e+00 206 220 155
-5.910496e-02 -5.264595e-01 -1.719488e+00 88 169 76
-1.254610e-02 -5.077956e-01 -1.732839e+00 180 172 132
4.493017e-02 -4.888632e-01 -1.689631e+00 92 173 84
-2.480261e-01 -3.784205e-01 -1.875677e+00 166 104 41
-2.480261e-01 -3.784205e-01 -1.875677e+00 166 104 41
-2.529408e-01 -3.789959e-01 -1.880003e+00 99 30 3
-2.530988e-01 -3.786876e-01 -1.880214e+00 99 30 3
-2.680043e-01 -3.322833e-01 -1.874997e+00 165 98 26
-2.330143e-01 -3.066922e-01 -1.841512e+00 83 20 3
-2.192059e-01 -3.014554e-01 -1.840566e+00 164 107 35
-9.482515e-02 -3.020799e-01 -1.810217e+00 72 0 1
-9.724910e-02 -2.862279e-01 -1.824032e+00 74 0 0
-2.836454e-01 -2.798172e-01 -1.843537e+00 107 53 5
-2.107436e-01 -2.592254e-01 -1.822950e+00 174 128 54
-2.216444e-01 -2.418456e-01 -1.825539e+00 174 123 45
-2.458976e-02 -2.391190e-01 -1.797977e+00 158 58 32
-3.657845e-01 -2.284183e-01 -1.891234e+00 168 112 37
-2.677102e-01 -2.274369e-01 -1.837279e+00 95 50 1
-2.868904e-01 -2.244634e-01 -1.833038e+00 91 45 0
-1.436261e-01 -1.795757e-01 -1.799419e+00 100 43 3
-2.834848e-01 -1.329524e-01 -1.810003e+00 181 131 55
-4.128605e-01 -7.105462e-01 -1.819521e+00 135 152 78
-3.723466e-01 -6.935094e-01 -1.816143e+00 44 113 5
-3.138198e-01 -6.556113e-01 -1.801821e+00 44 123 40
-1.006346e-01 -5.522248e-01 -1.754727e+00 81 113 66
2.400916e-01 -4.843696e-01 -1.636709e+00 74 72 57
1.161941e-01 -5.081170e-01 -1.845265e+00 32 20 6
-3.610290e-01 -4.161593e-01 -1.935752e+00 160 106 36
-3.607734e-01 -4.177834e-01 -1.942197e+00 160 106 36
-3.613425e-01 -4.017871e-01 -1.931366e+00 167 107 38
-2.570555e-01 -3.805409e-01 -1.880464e+00 163 85 29
-1.262101e-01 -3.419865e-01 -1.814663e+00 140 49 33
-1.517306e-01 -3.364565e-01 -1.825861e+00 169 75 41
-2.666511e-01 -3.326758e-01 -1.852595e+00 106 37 0
-2.158166e-01 -3.054161e-01 -1.837541e+00 89 27 0
-2.572221e-01 -3.034267e-01 -1.835593e+00 111 56 2
-2.096481e-01 -3.036490e-01 -1.828668e+00 91 31 5
-2.623146e-01 -3.040131e-01 -1.854989e+00 100 38 1
-9.008972e-02 -2.979771e-01 -1.804130e+00 76 3 0
-8.519679e-02 -2.915189e-01 -1.799611e+00 102 7 1
-8.708281e-02 -2.780161e-01 -1.814869e+00 86 3 3
-3.643918e-01 -2.577498e-01 -1.876399e+00 110 63 5
-4.132668e-01 -2.201592e-01 -1.931266e+00 141 81 36
-2.386747e-01 -1.938828e-01 -1.818835e+00 96 44 13
-9.148894e-02 -1.796084e-01 -1.774822e+00 138 79 25
-1.322607e-01 -1.768502e-01 -1.793019e+00 153 94 28
-3.222323e-01 -1.733581e-01 -1.831489e+00 164 107 32
-3.222323e-01 -1.733581e-01 -1.831489e+00 164 107 32
-1.296528e-01 -1.667771e-01 -1.796215e+00 87 29 2
-1.296528e-01 -1.667771e-01 -1.796215e+00 87 29 2
-3.900341e-01 -1.621536e-01 -1.867258e+00 119 75 6
-2.482106e-01 -1.325172e-01 -1.793417e+00 98 41 5
-9.567213e-02 -1.136647e-01 -1.771399e+00 86 22 10
-2.254011e-01 -1.152562e-01 -1.781580e+00 174 120 49
-1.644576e-01 -9.413438e-02 -1.778215e+00 143 87 25
-1.016766e-01 -8.306760e-02 -1.755662e+00 64 15 2
-3.230448e-01 -5.025122e-03 -1.790535e+00 174 73 32
-1.755418e-01 2.307419e-01 -1.798399e+00 61 48 58
-1.755418e-01 2.307419e-01 -1.798399e+00 61 48 58
1.415260e-01 -2.875641e-01 -1.904468e+00 207 189 151
-3.507261e-01 -6.547445e-01 -1.785277e+00 164 178 113
-2.371501e-01 -6.222418e-01 -1.750816e+00 185 203 149
-1.385004e-01 -5.599610e-01 -1.746425e+00 30 101 24
3.051703e-01 -3.987514e-01 -1.693063e+00 20 16 1
-1.144794e-01 -1.957278e-01 -1.817969e+00 168 116 66
-7.745464e-02 -5.175020e-02 -1.740546e+00 165 112 42
-2.386742e-01 -3.338829e-01 -1.860833e+00 101 44 1
-2.261757e-01 -1.485911e-01 -1.796357e+00 114 52 16
-1.166066e-01 -1.227070e-01 -1.773828e+00 99 39 6
-3.864766e-01 -1.126317e-01 -1.877824e+00 157 114 36
-1.357908e-02 -9.082089e-02 -1.777986e+00 109 51 1
-9.396049e-02 -5.379186e-02 -1.761872e+00 164 110 41
2.054687e-01 -4.205348e-01 -1.681990e+00 18 95 4
-2.323870e-01 -3.953496e-01 -1.873028e+00 93 27 1
-2.561582e-01 -3.606566e-01 -1.863922e+00 109 38 3
-2.343222e-01 -3.280714e-01 -1.857012e+00 157 94 26
-7.575169e-02 -2.892134e-01 -1.817433e+00 143 40 19
1.491363e-01 -2.934402e-01 -1.841016e+00 46 34 25
-2.027454e-01 -2.617997e-01 -1.833991e+00 86 29 10
-2.075377e-01 -2.295225e-01 -1.815577e+00 93 42 7
-2.075377e-01 -2.295225e-01 -1.815577e+00 93 42 7
-3.750587e-01 -1.556250e-01 -1.865413e+00 126 74 1
-2.731998e-01 -1.752059e-02 -1.764000e+00 193 83 34
-2.903825e-01 -1.274445e-02 -1.771928e+00 220 122 73
-2.903825e-01 -1.274445e-02 -1.771928e+00 220 122 73
-1.109404e-01 2.008902e-01 -1.745268e+00 112 97 98
-2.334478e-01 -4.694308e-01 -1.892334e+00 105 41 2
-3.401283e-01 -4.509443e-01 -1.964675e+00 157 99 26
-2.199035e-01 -4.157491e-01 -1.873655e+00 79 14 0
-2.526913e-01 -3.334005e-01 -1.874168e+00 163 103 36
-5.588340e-02 -3.560208e-01 -1.841517e+00 134 38 24
-1.219605e-01 -3.445831e-01 -1.829105e+00 149 59 36
-1.088549e-01 -3.019770e-01 -1.829178e+00 77 4 4
-3.046970e-01 -2.762755e-01 -1.849240e+00 102 49 6
-2.260828e-01 -2.437990e-01 -1.850012e+00 150 85 25
-3.634465e-01 -1.230484e-01 -1.855053e+00 163 112 32
-1.804301e-01 1.856276e-02 -1.731964e+00 42 28 35
6.979298e-01 -5.843002e-01 -1.545040e+00 192 177 138
-1.864540e+00 8.148307e-01 -2.950234e+00 73 93 112
6.094714e-01 -4.708220e-01 -1.583120e+00 40 34 20
-1.884920e+00 7.099074e-01 -2.909007e+00 67 85 99
-1.884920e+00 7.099074e-01 -2.909007e+00 67 85 99
-2.036713e+00 8.630971e-01 -2.934810e+00 147 132 106
-1.602577e-01 -8.748095e-02 -1.763579e+00 144 86 5
-1.914989e+00 8.610645e-01 -3.042953e+00 166 150 126
-2.003937e+00 8.057052e-01 -2.915923e+00 137 126 110
6.780673e-01 -6.481966e-01 -1.556380e+00 176 167 116
-2.567996e-01 2.207334e-01 -1.827637e+00 62 52 76
-1.807825e+00 7.533119e-01 -2.862562e+00 134 128 115
-2.152618e+00 8.523656e-01 -3.075520e+00 158 144 119
4.667065e-01 -5.187486e-01 -1.565872e+00 101 99 72
-3.731134e-01 -8.908438e-02 -1.843269e+00 98 43 3
-1.838508e-01 2.189520e-01 -1.800760e+00 61 48 66
-2.688029e-01 2.097466e-01 -1.810197e+00 61 49 72
-2.688029e-01 2.097466e-01 -1.810197e+00 61 49 72
-2.093285e+00 8.037720e-01 -3.020658e+00 90 79 48
6.641687e-01 -5.532455e-01 -1.537710e+00 29 26 8
7.700934e-02 -4.745123e-01 -1.716102e+00 35 118 35
5.170068e-01 -4.251677e-01 -1.560261e+00 55 42 14
-5.505752e-02 -4.505995e-01 -1.841669e+00 134 36 16
-4.037769e-01 -6.908058e-02 -1.871924e+00 176 109 47
-4.657752e-01 2.255122e-01 -1.905243e+00 34 17 5
1.280138e+00 5.915554e-01 -1.691042e+00 118 107 87
2.332260e-01 -5.742391e-01 -1.656176e+00 77 75 62
-9.242679e-02 -2.075702e-01 -1.803246e+00 179 78 46
6.538736e-01 -5.300534e-01 -1.536628e+00 117 105 66
8.136569e-02 -5.320060e-01 -1.741440e+00 22 68 7
1.301813e-01 -5.398981e-01 -1.759882e+00 19 22 3
1.597050e-01 -4.923336e-01 -1.704640e+00 34 53 30
5.243922e-01 -4.470164e-01 -1.543217e+00 72 67 49
3.567846e-01 -4.325679e-01 -1.638686e+00 61 59 46
1.983181e-01 -4.238806e-01 -1.675363e+00 190 217 143
1.746769e-01 -4.240259e-01 -1.684837e+00 190 211 141
5.498549e-01 -4.023839e-01 -1.621687e+00 90 77 45
-3.672805e-01 -4.156459e-01 -1.920657e+00 178 111 57
9.286508e-02 -3.228596e-01 -1.774293e+00 51 44 36
-1.585618e-01 -2.853637e-01 -1.829248e+00 179 82 46
-3.873517e-01 -2.466896e-01 -1.899863e+00 192 127 73
-3.595493e-01 -1.814595e-01 -1.881100e+00 158 110 34
-2.335605e-01 -1.672658e-01 -1.807046e+00 123 68 0
-1.576593e-01 2.043193e-01 -1.787504e+00 50 37 53
-4.536808e-01 2.572738e-01 -1.886492e+00 65 48 27
1.557308e-01 -5.435920e-01 -1.659101e+00 27 25 13
2.305771e-01 -4.728480e-01 -1.681137e+00 5 7 2
-8.291950e-02 -5.961198e-01 -1.720590e+00 173 156 113
5.800107e-02 -4.614885e-01 -1.705425e+00 40 39 19
6.654353e-01 -6.626825e-01 -1.547779e+00 178 162 126
-1.077096e-01 -5.262489e-01 -1.672569e+00 18 90 15
-6.011499e-02 -5.133289e-01 -1.670745e+00 20 93 17
-2.593861e-02 -5.127987e-01 -1.712616e+00 16 91 12
1.599552e-02 -4.906205e-01 -1.701252e+00 13 87 11
5.374768e-01 -3.990984e-01 -1.628160e+00 17 18 9
-9.468224e-02 -6.841524e-02 -1.785285e+00 145 81 11
1.869646e-01 -4.783907e-01 -1.681560e+00 0 5 0
4.041269e-02 -1.334894e-01 -1.857028e+00 112 58 12
1.219904e-01 -1.220169e-01 -1.919989e+00 157 103 56
-7.890556e-02 -5.652004e-01 -1.698743e+00 173 157 113
-1.173106e-01 -5.052994e-01 -1.682222e+00 37 109 25
1.033195e-01 -5.252430e-01 -1.705724e+00 36 38 20
-4.597151e-01 1.159821e-01 -1.938809e+00 211 197 157
-2.599520e-01 -5.999395e-01 -1.701058e+00 24 91 19
2.643760e-01 -4.839875e-01 -1.499072e+00 73 72 54
2.643760e-01 -4.839875e-01 -1.499072e+00 73 72 54
7.149492e-02 -4.923389e-01 -1.687866e+00 201 218 162
1.754938e-01 -4.532092e-01 -1.668035e+00 123 142 91
1.657359e-01 -4.408474e-01 -1.668023e+00 20 93 16
1.889316e-01 -4.262274e-01 -1.687371e+00 197 207 159
2.066642e-01 -4.218084e-01 -1.687895e+00 32 114 29
3.162354e-01 -4.005368e-01 -1.685943e+00 20 9 2
1.870746e-01 -3.933913e-01 -2.049792e+00 101 8 0
2.325232e-01 -3.912569e-01 -2.062235e+00 17 7 1
-1.299464e-01 -9.399265e-02 -1.768773e+00 78 27 1
-1.299464e-01 -9.399265e-02 -1.768773e+00 78 27 1
-1.170901e-01 -1.635735e-01 -1.796350e+00 103 40 11
2.562655e-01 -3.736806e-01 -2.139098e+00 114 29 2
4.727113e-01 -3.939619e-01 -1.710409e+00 71 68 59
4.727113e-01 -3.939619e-01 -1.710409e+00 71 68 59
6.630040e-02 -1.283093e-01 -1.880934e+00 163 112 57
5.200843e-02 -1.250414e-01 -1.868467e+00 87 28 0
9.052241e-02 -1.187218e-01 -1.889043e+00 129 78 21
1.788527e-01 -4.318691e-01 -1.697561e+00 13 29 2
4.720136e-01 -3.741226e-01 -1.704771e+00 101 99 86
-1.845231e-01 -1.823954e-01 -1.820627e+00 168 82 47
6.291580e-02 3.824273e-02 -1.818928e+00 189 140 95
-1.592921e-01 -5.950602e-01 -1.793881e+00 20 84 22
-1.960749e+00 5.574612e-01 -2.752327e+00 49 58 58
-3.020352e-01 -6.681758e-01 -1.847144e+00 20 78 25
6.545826e-01 -5.201952e-01 -1.547102e+00 178 164 126
-7.107159e-02 -1.102362e-01 -1.774337e+00 70 26 1
-2.120835e+00 7.863288e-01 -3.018782e+00 117 106 81
9.533004e-02 -5.332434e-01 -1.729296e+00 101 97 57
-2.476354e-01 -4.196077e-01 -1.875997e+00 89 24 0
-3.483860e-01 -1.785513e-01 -1.861932e+00 95 52 18
6.589328e-01 -5.372382e-01 -1.538278e+00 58 53 22
-1.668777e-01 -9.767362e-02 -1.772103e+00 122 68 19
-1.876268e-01 -5.738025e-01 -1.741678e+00 181 175 138
2.382744e-01 -4.891741e-01 -1.638609e+00 78 76 63
1.459502e-01 -4.498257e-01 -1.671777e+00 46 82 25
1.636648e-01 -4.439064e-01 -1.696749e+00 18 52 1
2.024803e-01 -4.300261e-01 -1.668403e+00 170 192 138
-7.912352e-02 -2.906634e-01 -1.821576e+00 87 3 5
-2.700977e-01 -2.808105e-01 -1.854068e+00 77 19 4
3.812165e-01 -1.906322e-01 -1.831635e+00 81 75 58
-2.889091e-01 -1.679257e-02 -1.769693e+00 227 144 102
3.379438e-02 2.333469e-01 -1.755653e+00 126 115 96
-2.181010e+00 8.044420e-01 -3.095993e+00 52 46 36
-3.222514e-01 -7.217578e-01 -1.851256e+00 46 83 33
6.855327e-01 -6.318979e-01 -1.554972e+00 160 147 105
-2.087529e+00 7.569000e-01 -2.956682e+00 129 117 91
-1.984405e+00 8.231960e-01 -2.974914e+00 119 112 87
-2.009766e+00 7.537395e-01 -2.959657e+00 133 122 98
-2.120321e+00 8.200021e-01 -3.073884e+00 95 83 57
-2.031813e+00 7.714887e-01 -2.963545e+00 130 119 92
6.760982e-01 -7.354026e-01 -1.578349e+00 26 21 0
4.678787e-02 -4.738427e-01 -1.705762e+00 84 85 51
-2.957925e-01 -9.325157e-02 -1.842776e+00 151 100 38
-3.219761e-01 -1.556333e-01 -1.828779e+00 144 96 41
-1.763917e+00 7.440543e-01 -2.793002e+00 44 63 69
2.178403e-01 -5.788910e-01 -1.659763e+00 78 78 66
-1.736654e-01 3.792834e-02 -1.769733e+00 96 89 93
-3.080275e-01 -4.489367e-01 -1.900466e+00 141 80 33
-3.754083e-01 -4.223333e-01 -1.894564e+00 119 41 9
-3.754741e-01 -4.228019e-01 -1.896616e+00 119 41 9
3.441647e-01 -3.741730e-01 -1.665214e+00 53 50 41
-3.187923e-01 -1.532830e-01 -1.833725e+00 102 49 0
-1.590343e-01 -3.534063e-01 -1.845339e+00 164 74 47
-2.160983e-01 -1.943195e-01 -1.812469e+00 152 105 45
-3.291915e-01 -1.282272e-01 -1.829811e+00 136 85 29
4.555606e-01 -5.223783e-01 -1.573842e+00 65 58 49
-1.230870e-01 -3.519853e-01 -1.839392e+00 81 2 2
-1.318862e-01 -3.347123e-01 -1.837317e+00 169 83 56
-1.033704e-01 -1.296040e-01 -1.778759e+00 132 72 24
-3.320744e-01 -6.921185e-01 -1.876124e+00 30 94 34
4.583283e-01 -4.988891e-01 -1.544301e+00 78 76 55
-1.935469e-02 -3.418749e-01 -1.847500e+00 130 34 12
-1.678629e-01 2.186751e-01 -1.787862e+00 111 97 98
-1.678629e-01 2.186751e-01 -1.787862e+00 111 97 98
-4.394061e-01 -4.766932e-02 -1.903650e+00 148 115 64
-1.428102e-01 3.326283e-01 -1.853767e+00 26 22 39
5.050862e-01 -4.303220e-01 -1.544715e+00 48 42 27
-1.810982e-01 -2.484088e-01 -1.818581e+00 183 97 60
-2.400988e-01 2.753097e-01 -1.807105e+00 82 72 72
-8.183452e-02 -1.720543e-01 -1.795580e+00 85 38 10
-2.368166e-01 -3.106105e-01 -1.855070e+00 163 104 27
-3.274924e-01 -2.313079e-01 -1.869819e+00 90 37 0
-3.274924e-01 -2.313079e-01 -1.869819e+00 90 37 0
1.341433e-02 -3.168685e-01 -1.855575e+00 133 41 29
1.341433e-02 -3.168685e-01 -1.855575e+00 133 41 29
-6.650778e-02 -5.183943e-01 -1.700866e+00 116 189 100
-1.010947e-01 -1.129559e-01 -1.773981e+00 154 94 25
-6.654403e-02 -8.246458e-02 -1.769081e+00 102 36 0
-9.767365e-02 -6.249279e-01 -1.777844e+00 199 178 135
-3.453711e-01 -6.839474e-01 -1.845765e+00 32 110 28
-1.587390e-01 -5.949658e-01 -1.791389e+00 25 109 24
7.016184e-02 -5.186033e-01 -1.691555e+00 118 104 65
3.288222e-01 -5.772575e-01 -1.576795e+00 63 62 44
4.315553e-01 -5.073940e-01 -1.545383e+00 90 84 60
4.315553e-01 -5.073940e-01 -1.545383e+00 90 84 60
2.398434e-02 -5.472408e-01 -1.729369e+00 56 78 9
1.265478e-02 -5.040500e-01 -1.683326e+00 177 196 140
1.128164e-01 -4.558823e-01 -1.704085e+00 33 117 26
5.139066e-01 -4.291470e-01 -1.552142e+00 55 48 22
2.072805e-01 -4.106967e-01 -1.677832e+00 53 124 39
1.921889e-01 -5.377763e-01 -1.568266e+00 80 79 61
3.117257e-01 -4.473320e-01 -1.635890e+00 64 62 48
2.197193e-01 -4.183482e-01 -1.669999e+00 166 125 66
3.216898e-01 -3.944151e-01 -1.659722e+00 36 29 19
-9.308477e-02 -3.660593e-01 -1.825018e+00 89 2 4
-2.572071e-01 -3.470087e-01 -1.867975e+00 111 40 6
-2.572071e-01 -3.470087e-01 -1.867975e+00 111 40 6
-2.404614e-01 -3.331470e-01 -1.857174e+00 119 58 25
-7.146177e-03 -3.124638e-01 -1.822073e+00 86 1 3
-7.146177e-03 -3.124638e-01 -1.822073e+00 86 1 3
2.844451e-02 -2.935166e-01 -1.824210e+00 86 0 2
-2.261281e-01 -1.471280e-01 -1.796128e+00 93 32 3
1.850654e-01 -5.371348e-01 -1.575541e+00 76 75 58
4.670313e-01 -4.726202e-01 -1.520755e+00 68 65 50
3.657276e-02 -4.891057e-01 -1.725189e+00 142 160 97
1.300450e-01 -4.858294e-01 -1.710077e+00 31 84 18
9.866308e-02 -4.658764e-01 -1.698754e+00 44 95 4
-7.224902e-02 -4.713930e-01 -1.868917e+00 87 3 1
2.092663e-01 -4.323146e-01 -1.647490e+00 94 69 38
3.246590e-01 -4.350295e-01 -1.627874e+00 75 73 60
1.922977e-01 -4.231048e-01 -1.674512e+00 31 88 10
3.676259e-01 -4.135537e-01 -1.620440e+00 66 64 51
-3.315614e-01 -4.358882e-01 -1.920457e+00 116 59 3
-3.315614e-01 -4.358882e-01 -1.920457e+00 116 59 3
4.068918e-01 -3.988580e-01 -1.622332e+00 67 64 53
4.068918e-01 -3.988580e-01 -1.622332e+00 67 64 53
4.120747e-01 -3.874966e-01 -1.613686e+00 68 66 52
-1.914847e-01 -3.769932e-01 -1.850341e+00 114 41 0
3.359724e-01 -3.713518e-01 -1.658008e+00 55 53 40
-2.530314e-01 -3.451029e-01 -1.853984e+00 164 102 39
-1.367567e-01 -3.331309e-01 -1.831588e+00 134 35 4
-2.151629e-02 -3.183252e-01 -1.821835e+00 91 3 2
-4.150375e-01 -1.383404e-01 -1.891725e+00 129 64 19
2.466486e-01 -4.920788e-01 -1.649667e+00 73 72 54
2.493172e-01 -4.886290e-01 -1.645676e+00 74 72 57
2.567093e-01 -4.695745e-01 -1.633692e+00 54 52 40
1.508663e-01 -4.467886e-01 -1.692934e+00 41 93 15
2.104002e-01 -4.293153e-01 -1.673046e+00 79 95 31
-1.822726e-02 -4.527030e-01 -1.852246e+00 135 38 25
-1.153182e-02 -4.389592e-01 -1.851347e+00 94 1 1
1.574326e-01 -4.171672e-01 -1.727836e+00 44 40 29
-3.230345e-02 -4.239860e-01 -1.852670e+00 145 44 29
-3.515654e-01 -4.175817e-01 -1.943320e+00 110 51 0
-3.139529e-01 -4.074693e-01 -1.951288e+00 175 114 53
-3.141106e-01 -4.003891e-01 -1.918917e+00 175 114 53
-2.465856e-01 -3.933688e-01 -1.876282e+00 165 103 47
-2.447266e-01 -3.653568e-01 -1.868999e+00 94 29 5
4.214710e-01 -3.530521e-01 -1.661973e+00 35 33 20
4.727384e-01 -2.123424e-01 -1.930249e+00 41 40 22
1.530667e-01 -5.354232e-01 -1.591970e+00 76 77 59
-5.170739e-02 -2.386284e-01 -1.824925e+00 158 64 31
-3.175753e-01 -6.705923e-03 -1.764732e+00 154 48 17
6.904481e-01 -4.271433e-01 -1.717487e+00 86 77 38
7.395719e-01 -4.648145e-01 -1.704004e+00 204 188 152
-2.050358e-01 -2.299582e-01 -1.825631e+00 111 56 16
6.937597e-01 -5.651198e-01 -1.547780e+00 101 93 46
-1.064230e-01 -2.895435e-01 -1.834823e+00 89 11 4
-2.112895e-01 -1.664434e-01 -1.808063e+00 136 81 14
-1.979183e-01 -1.674087e-01 -1.806818e+00 183 128 73
-1.789537e-01 -2.631851e-01 -1.817417e+00 189 93 55
-1.181265e-01 -3.409815e-01 -1.867975e+00 158 81 42
-3.929171e-01 -1.989434e-01 -1.920881e+00 172 119 60
-2.286328e-01 -3.098737e-01 -1.866422e+00 88 26 2
-3.739866e-01 -3.292462e-01 -1.976954e+00 122 63 1
-1.997540e-01 -2.485326e-01 -1.843145e+00 97 34 1
-2.140934e-01 -2.437161e-01 -1.832693e+00 95 34 2
-2.052841e-01 -2.304424e-01 -1.825554e+00 98 44 1
-2.052841e-01 -2.304424e-01 -1.825554e+00 98 44 1
-3.061955e-01 -1.889365e-01 -1.832450e+00 104 57 3
-3.793202e-01 -1.690745e-01 -1.892530e+00 109 70 4
-3.270101e-01 -1.264276e-01 -1.821252e+00 113 64 6
-2.112627e-01 -2.589155e-01 -1.841034e+00 105 50 4
-3.584101e-01 -2.007080e-01 -1.884031e+00 156 108 40
-3.228073e-01 -1.943443e-01 -1.854159e+00 153 107 31
-2.456225e-01 -1.332646e-01 -1.784964e+00 161 113 42
-2.213278e-01 -1.954227e-01 -1.810479e+00 95 43 7
-3.397428e-01 -1.775554e-01 -1.852191e+00 158 112 44
-3.099964e-01 -1.250663e-01 -1.802176e+00 122 64 5
-3.643880e-01 -1.225298e-01 -1.843595e+00 155 107 35
4.978611e-01 -2.812564e-01 -1.783455e+00 30 27 18
1.428014e-01 -1.899259e-01 -1.811147e+00 191 173 133
-3.665013e-01 -7.339798e-02 -1.835767e+00 154 80 47
-3.109064e-01 -4.388131e-01 -1.898271e+00 90 29 0
-3.438640e-01 -1.813470e-01 -1.855528e+00 98 56 1
-3.434752e-01 -1.814971e-01 -1.859383e+00 95 52 0
3.821635e-01 -2.234198e-01 -1.736400e+00 212 198 152
-3.734710e-01 -3.862109e-01 -1.957599e+00 173 112 52
-3.688832e-01 -1.726274e-01 -1.864660e+00 96 57 3
-2.619526e-01 3.189241e-01 -1.866067e+00 120 106 105
-1.985413e-01 -2.007211e-01 -1.804417e+00 193 142 89
-7.391803e-02 -5.724391e-01 -1.737357e+00 28 109 24
-2.734817e-01 -2.837543e-01 -1.850481e+00 126 72 30
-2.734817e-01 -2.837543e-01 -1.850481e+00 126 72 30
1.818022e-01 -6.617420e-01 -1.678828e+00 114 104 72
-2.971652e-01 -6.479686e-01 -1.767679e+00 30 109 38
-2.423113e-01 -6.261725e-01 -1.757122e+00 99 122 68
-2.065767e-01 -6.061804e-01 -1.744930e+00 177 207 151
-1.805811e-01 1.208790e-01 -1.711544e+00 20 17 34
-3.963523e-01 -1.627010e-01 -1.889173e+00 187 130 75
-3.963523e-01 -1.627010e-01 -1.889173e+00 187 130 75
-3.178991e-01 -1.190895e-02 -1.771256e+00 176 69 26
-9.814748e-02 -5.548621e-01 -1.725834e+00 19 119 21
-1.720903e-01 -5.960205e-01 -1.736976e+00 18 102 17
-3.504594e-02 -5.422055e-01 -1.711921e+00 22 103 19
-2.049561e-01 -6.244029e-01 -1.738425e+00 182 165 119
1.458794e-01 -4.407243e-01 -1.670989e+00 162 183 116
-8.504567e-02 -5.290308e-01 -1.723391e+00 37 111 27
-2.379972e-01 -6.258899e-01 -1.742438e+00 62 98 33
-1.811163e-01 -5.711167e-01 -1.732627e+00 191 212 148
2.056888e-01 -4.176485e-01 -1.671683e+00 21 95 3
-1.487489e-01 -6.671848e-02 -1.769133e+00 162 108 26
1.992882e-01 -5.910956e-01 -1.555979e+00 27 24 5
1.780543e-01 -4.143315e-01 -1.682705e+00 31 26 6
-2.112549e-01 -2.511030e-01 -1.821735e+00 159 102 24
-6.996647e-02 2.093791e-01 -1.756339e+00 61 48 57
2.108724e-01 -6.006975e-01 -1.564652e+00 34 30 4
1.561423e-01 -6.209738e-01 -1.678032e+00 43 37 15
-2.190013e-01 -4.406754e-01 -1.869109e+00 94 30 3
-2.475001e-01 -4.182356e-01 -1.864736e+00 108 44 1
-2.843248e-01 -3.993427e-01 -1.869615e+00 108 38 0
-2.236056e-01 -3.969489e-01 -1.863171e+00 89 24 1
-2.542962e-01 -3.876264e-01 -1.858085e+00 109 44 0
-2.433964e-01 -3.149302e-01 -1.839514e+00 100 44 0
-1.858014e-01 3.059426e-02 -1.763697e+00 73 70 77
-3.199045e-01 3.207024e-02 -1.788545e+00 65 61 71
-6.656062e-02 -5.162790e-01 -1.703953e+00 78 161 64
9.526801e-02 -4.622542e-01 -1.716650e+00 46 42 8
2.179457e-01 -4.091870e-01 -1.671775e+00 196 182 119
-2.299178e-01 -1.954203e-01 -1.818590e+00 101 54 11
-1.522467e-01 -9.352556e-02 -1.768256e+00 55 4 0
-2.050153e-01 2.145576e-01 -1.792229e+00 55 42 58
-3.563963e-01 -6.386012e-01 -1.766856e+00 56 106 28
-2.928016e-01 -6.281786e-01 -1.741840e+00 112 157 103
-2.928016e-01 -6.281786e-01 -1.741840e+00 112 157 103
6.134292e-01 -5.229950e-01 -1.522567e+00 43 39 15
1.299912e-01 -5.459964e-01 -1.713974e+00 28 22 8
-1.663984e-02 -5.198426e-01 -1.715331e+00 52 153 49
5.302620e-01 -2.543450e-01 -1.809446e+00 53 40 23
-2.199766e-01 -2.105209e-01 -1.813898e+00 113 51 4
6.145942e-01 -5.751561e-01 -1.559105e+00 54 48 38
-6.889312e-02 -5.114715e-01 -1.682087e+00 12 110 17
-6.210635e-02 -5.486218e-01 -1.679564e+00 182 160 123
-3.259245e-01 3.054626e-01 -1.855390e+00 206 190 137
-2.199002e-01 -5.447345e-01 -1.654394e+00 76 91 28
-3.910858e-01 -2.383849e-01 -1.984552e+00 183 127 63
7.942595e-01 -5.913185e-01 -1.591454e+00 199 189 142
-1.583152e-01 -3.040436e-01 -1.850154e+00 184 97 62
5.492602e-01 -4.410370e-01 -1.581849e+00 43 44 30
5.471084e-03 -9.864888e-02 -1.812257e+00 128 67 27
