ply
format ascii 1.0
element face 0
property list uchar int vertex_indices
element vertex 932
property float x
property float y
property float z
property uchar diffuse_red
property uchar diffuse_green
property uchar diffuse_blue
end_header
2.963316e-01 -6.624454e-01 -1.590907e+00 98 94 67
3.355541e-01 -6.059504e-01 -1.571499e+00 72 70 58
3.343771e-01 -6.053561e-01 -1.570479e+00 72 70 58
-1.853731e-01 -6.512506e-01 -1.789384e+00 63 83 15
2.962155e-01 -5.935493e-01 -1.596830e+00 88 86 73
2.643835e-01 -5.870979e-01 -1.604080e+00 22 19 10
2.748533e-01 -5.895892e-01 -1.617477e+00 78 75 59
-1.402491e-01 -5.938868e-01 -1.711146e+00 136 223 128
-1.177656e-01 -6.287696e-01 -1.795108e+00 136 223 128
2.595143e-01 -5.854372e-01 -1.620542e+00 64 62 47
2.585049e-01 -5.877513e-01 -1.630435e+00 77 75 62
-9.395238e-02 -6.167244e-01 -1.780232e+00 46 93 40
2.189326e-01 -5.830516e-01 -1.654363e+00 15 13 2
-1.248612e-01 -6.051265e-01 -1.784408e+00 205 195 160
6.699706e-01 -5.252296e-01 -1.488590e+00 70 63 53
7.014335e-02 -5.695755e-01 -1.730163e+00 52 73 11
-2.604111e-02 -5.730894e-01 -1.758763e+00 53 144 46
-2.426287e-02 -5.641884e-01 -1.744884e+00 97 170 81
-2.141746e-02 -5.598622e-01 -1.755788e+00 206 222 179
9.742296e-02 -5.523805e-01 -1.715201e+00 36 47 5
9.600634e-02 -5.515114e-01 -1.712704e+00 36 47 5
-1.198807e-02 -5.559513e-01 -1.757356e+00 58 87 35
2.466324e-01 -5.247121e-01 -1.634943e+00 51 48 41
5.158959e-02 -5.386865e-01 -1.722443e+00 61 75 14
9.687444e-03 -5.355063e-01 -1.731127e+00 54 96 44
2.724739e-02 -5.351312e-01 -1.732993e+00 23 67 14
1.419479e-01 -5.271232e-01 -1.695657e+00 15 31 1
2.985956e-02 -5.286175e-01 -1.731364e+00 50 94 30
7.488528e-02 -5.111181e-01 -1.736652e+00 109 99 52
1.415048e-01 -4.948799e-01 -1.695952e+00 52 98 35
1.433767e-01 -4.893805e-01 -1.686047e+00 59 77 20
1.149133e-01 -4.842695e-01 -1.691291e+00 27 75 19
6.364409e-01 -4.563295e-01 -1.529867e+00 211 196 157
1.436434e-01 -4.764032e-01 -1.676292e+00 93 176 76
1.198838e-01 -4.731118e-01 -1.667660e+00 18 74 1
1.966718e-01 -4.739450e-01 -1.671966e+00 41 85 17
-2.279098e-01 -5.093673e-01 -1.883185e+00 183 118 71
-2.436035e-01 -5.074757e-01 -1.884319e+00 182 122 74
1.595648e-01 -4.593920e-01 -1.672401e+00 24 76 22
-1.967757e-01 -4.966130e-01 -1.876201e+00 92 24 1
-1.797416e-01 -4.932822e-01 -1.868082e+00 96 30 0
-7.317802e-02 -4.858386e-01 -1.840862e+00 95 3 0
1.784104e-01 -4.480722e-01 -1.656230e+00 14 79 3
-2.213139e-01 -4.914295e-01 -1.889517e+00 157 96 39
-2.225100e-01 -4.904592e-01 -1.884601e+00 157 96 39
-3.128476e-01 -4.940248e-01 -1.918360e+00 186 125 77
7.668460e-02 -4.750068e-01 -1.828898e+00 81 34 6
2.351874e-01 -4.405659e-01 -1.650460e+00 64 82 19
2.351838e-01 -4.406377e-01 -1.650512e+00 64 82 19
-4.523967e-02 -4.705897e-01 -1.822911e+00 92 1 3
-5.851878e-02 -4.698440e-01 -1.820866e+00 140 41 28
-3.948666e-02 -4.731879e-01 -1.852970e+00 142 45 27
-3.903834e-02 -4.736106e-01 -1.852933e+00 142 45 27
2.310770e-01 -4.292194e-01 -1.642391e+00 187 188 115
-2.176595e-01 -4.632687e-01 -1.874643e+00 97 30 2
-1.708393e-01 -4.563114e-01 -1.852079e+00 115 48 0
-2.203804e-01 -4.573181e-01 -1.867802e+00 101 32 2
2.375847e-01 -4.191856e-01 -1.643110e+00 202 189 129
2.387597e-01 -4.192857e-01 -1.644042e+00 202 189 129
-2.319239e-01 -4.546225e-01 -1.881629e+00 154 88 20
-3.454442e-01 -4.612793e-01 -1.938169e+00 116 57 2
5.762514e-01 -4.000471e-01 -1.569188e+00 53 44 10
-3.062202e-01 -4.556041e-01 -1.910335e+00 161 95 32
-1.727042e-01 -4.420050e-01 -1.853402e+00 116 46 0
-1.727850e-01 -4.419285e-01 -1.853342e+00 116 46 0
5.601674e-01 -3.935590e-01 -1.559424e+00 209 194 150
-2.225055e-01 -4.425649e-01 -1.862638e+00 80 12 0
-2.226551e-01 -4.426229e-01 -1.862248e+00 80 12 0
-1.879207e-01 -4.371943e-01 -1.849506e+00 151 86 28
-1.874595e-01 -4.376560e-01 -1.852036e+00 151 86 28
-3.102946e-01 -4.409754e-01 -1.906961e+00 154 92 28
-3.489863e-01 -4.441956e-01 -1.939826e+00 121 61 5
-2.237052e-01 -4.317044e-01 -1.866762e+00 83 18 2
-2.244567e-01 -4.307256e-01 -1.859905e+00 83 18 2
-1.764244e-01 -4.260626e-01 -1.843220e+00 122 50 0
3.281242e-01 -3.894884e-01 -1.621279e+00 51 42 14
-3.596691e-02 -4.171081e-01 -1.803027e+00 92 2 1
3.349991e-01 -3.863089e-01 -1.608961e+00 122 116 96
3.259824e-01 -3.853355e-01 -1.601169e+00 122 116 96
3.404177e-01 -3.875016e-01 -1.624486e+00 38 31 6
-1.896629e-01 -4.224153e-01 -1.849143e+00 153 87 28
-3.360150e-01 -4.316690e-01 -1.917362e+00 162 101 36
3.415278e-01 -3.883986e-01 -1.637981e+00 80 75 55
3.377417e-01 -3.877148e-01 -1.634948e+00 80 75 55
3.471318e-01 -3.846305e-01 -1.622577e+00 29 22 5
-2.108016e-01 -4.196662e-01 -1.851527e+00 80 14 1
-3.547072e-01 -4.294266e-01 -1.924029e+00 180 117 62
-3.546498e-01 -4.295568e-01 -1.922384e+00 180 117 62
-1.867500e-01 -4.172101e-01 -1.845805e+00 94 23 3
-1.871836e-01 -4.167917e-01 -1.844065e+00 94 23 3
-3.452699e-01 -4.270188e-01 -1.919790e+00 156 103 36
-3.063668e-01 -4.196363e-01 -1.894755e+00 99 37 0
-1.897733e-01 -4.093374e-01 -1.858706e+00 145 79 23
-3.223909e-01 -4.159856e-01 -1.907733e+00 98 36 0
-3.224169e-01 -4.152791e-01 -1.903770e+00 98 36 0
-2.118666e-01 -4.054073e-01 -1.858654e+00 81 11 1
-3.537339e-01 -4.124011e-01 -1.924526e+00 114 56 1
-3.207734e-01 -4.093877e-01 -1.901295e+00 160 97 30
-3.501960e-01 -4.096770e-01 -1.921894e+00 161 102 43
-2.377472e-01 -3.983374e-01 -1.855510e+00 158 97 35
-2.377472e-01 -3.983374e-01 -1.855510e+00 158 97 35
-3.320180e-01 -4.056544e-01 -1.910070e+00 162 100 32
-2.441320e-01 -3.958181e-01 -1.857687e+00 109 35 6
-2.441320e-01 -3.958181e-01 -1.857687e+00 109 35 6
-3.399201e-01 -4.031115e-01 -1.917705e+00 159 101 36
-1.950163e-01 -3.914602e-01 -1.842645e+00 147 83 20
-2.366303e-01 -3.812345e-01 -1.855638e+00 105 39 3
-3.340249e-02 -3.676757e-01 -1.798243e+00 88 0 0
-3.148714e-01 -3.826205e-01 -1.891425e+00 157 91 23
-7.704290e-02 -3.682817e-01 -1.800439e+00 79 1 0
-3.348529e-01 -3.819737e-01 -1.907183e+00 108 52 1
-3.348264e-01 -3.819341e-01 -1.906493e+00 108 52 1
-5.495992e-02 -3.655719e-01 -1.797851e+00 139 40 18
-1.683306e-01 -3.687540e-01 -1.825943e+00 127 42 4
6.473352e-02 -3.595353e-01 -1.797046e+00 131 77 60
-3.462262e-01 -3.772581e-01 -1.910920e+00 105 49 1
-3.464062e-01 -3.773911e-01 -1.912060e+00 105 49 1
-3.355432e-01 -3.746037e-01 -1.897344e+00 162 96 28
-2.428186e-01 -3.675226e-01 -1.852601e+00 161 98 43
-2.427652e-01 -3.675750e-01 -1.852914e+00 161 98 43
-3.539743e-01 -3.746655e-01 -1.915371e+00 109 53 4
-1.088127e-01 -3.591858e-01 -1.807217e+00 85 3 0
-1.088127e-01 -3.591858e-01 -1.807217e+00 85 3 0
-3.606360e-01 -3.687729e-01 -1.917100e+00 111 52 4
-3.536075e-01 -3.680915e-01 -1.909454e+00 166 108 38
4.533422e-01 -3.219876e-01 -1.597115e+00 87 87 69
9.660215e-03 -3.481132e-01 -1.827864e+00 132 38 22
-1.287082e-01 -3.497926e-01 -1.813395e+00 126 31 1
-2.406779e-01 -3.538784e-01 -1.848985e+00 83 17 0
-2.406779e-01 -3.538784e-01 -1.848985e+00 83 17 0
-2.497328e-01 -3.545095e-01 -1.858928e+00 98 34 6
-1.249145e-01 -3.461091e-01 -1.810513e+00 183 98 61
-1.596230e-01 -3.483943e-01 -1.825933e+00 138 40 5
-2.460632e-01 -3.520512e-01 -1.847783e+00 160 100 37
-2.459651e-01 -3.521087e-01 -1.849056e+00 160 100 37
-2.608054e-01 -3.520564e-01 -1.855630e+00 162 96 27
-2.034480e-01 -3.455036e-01 -1.823769e+00 151 91 20
-2.026603e-01 -3.456561e-01 -1.827753e+00 151 91 20
-3.587597e-02 -3.373131e-01 -1.784606e+00 76 0 0
7.542592e-03 -3.350494e-01 -1.792624e+00 88 0 2
7.583763e-03 -3.351024e-01 -1.792762e+00 88 0 2
-2.061428e-01 -3.382239e-01 -1.830163e+00 81 18 0
-2.043764e-01 -3.387527e-01 -1.838621e+00 81 18 0
-2.515182e-01 -3.397264e-01 -1.859034e+00 101 37 3
8.119622e-02 -3.247369e-01 -1.802603e+00 140 119 74
-2.573585e-01 -3.389152e-01 -1.848615e+00 158 94 23
-2.473524e-01 -3.369316e-01 -1.852679e+00 164 106 34
-2.549497e-01 -3.345012e-01 -1.841330e+00 107 41 1
-2.543387e-01 -3.344774e-01 -1.847201e+00 107 41 1
-2.053067e-01 -3.297539e-01 -1.819390e+00 153 96 25
-3.701259e-01 -3.379712e-01 -1.907460e+00 187 120 64
-3.701123e-01 -3.380009e-01 -1.906150e+00 187 120 64
-2.251165e-01 -3.276613e-01 -1.837143e+00 83 21 1
-6.287221e-02 -3.185947e-01 -1.771818e+00 68 1 2
2.574617e-02 -3.129843e-01 -1.771178e+00 92 2 0
2.992662e-02 -3.125977e-01 -1.780101e+00 92 2 0
-8.799976e-02 -3.174650e-01 -1.787690e+00 77 0 1
-2.123820e-01 -3.214350e-01 -1.827177e+00 158 99 27
-2.169149e-01 -3.206824e-01 -1.829220e+00 114 51 0
4.468439e-01 -2.883694e-01 -1.631760e+00 65 58 42
-1.909036e-01 -3.186717e-01 -1.830689e+00 120 54 0
-5.495428e-02 -3.083563e-01 -1.787113e+00 78 0 0
-6.557063e-02 -3.092328e-01 -1.791017e+00 76 0 0
-1.000547e-01 -3.071489e-01 -1.786439e+00 140 52 27
-9.879819e-02 -3.071139e-01 -1.790191e+00 140 52 27
1.223342e-01 -2.954042e-01 -1.750991e+00 45 35 25
4.551109e-01 -2.772376e-01 -1.634362e+00 213 199 157
-6.769351e-02 -3.033799e-01 -1.785927e+00 86 0 0
-3.903006e-01 -3.186288e-01 -1.916867e+00 128 61 16
-2.834323e-02 -2.998344e-01 -1.777587e+00 135 47 31
4.636858e-01 -2.750452e-01 -1.647746e+00 47 35 14
6.844680e-02 -2.920574e-01 -1.778355e+00 154 130 85
-5.877228e-02 -2.967930e-01 -1.774653e+00 141 41 27
4.646419e-01 -2.688956e-01 -1.649848e+00 215 200 151
4.479212e-01 -2.690427e-01 -1.643011e+00 58 47 22
-5.986021e-02 -2.906790e-01 -1.791625e+00 67 0 3
-8.299802e-02 -2.922173e-01 -1.787072e+00 88 5 2
4.716966e-01 -2.627689e-01 -1.665843e+00 45 34 14
-3.922872e-01 -3.055016e-01 -1.922238e+00 133 63 21
-3.180130e-01 -2.961224e-01 -1.890525e+00 169 111 40
3.926458e-03 -2.714896e-01 -1.775487e+00 131 41 28
2.486812e-02 -2.689121e-01 -1.818998e+00 131 41 28
-1.987360e-01 -2.818605e-01 -1.814747e+00 74 14 2
-1.994443e-01 -2.819124e-01 -1.810826e+00 74 14 2
4.707484e-01 -2.445965e-01 -1.679608e+00 219 205 159
-1.952627e-01 -2.801490e-01 -1.809344e+00 164 114 32
4.522124e-01 -2.433647e-01 -1.683371e+00 59 48 31
-2.058778e-01 -2.769906e-01 -1.813999e+00 169 122 55
1.620362e-02 -2.640509e-01 -1.774746e+00 130 36 24
1.620362e-02 -2.640509e-01 -1.774746e+00 130 36 24
-2.131913e-01 -2.764000e-01 -1.826011e+00 165 117 52
-2.139893e-01 -2.767362e-01 -1.820987e+00 165 117 52
-6.787266e-02 -2.677633e-01 -1.761955e+00 155 62 31
-6.385819e-02 -2.670648e-01 -1.772387e+00 155 62 31
-2.212408e-01 -2.739076e-01 -1.818179e+00 99 42 3
-1.235582e-01 -2.680810e-01 -1.775024e+00 174 78 42
-1.235582e-01 -2.680810e-01 -1.775024e+00 174 78 42
-2.003533e-01 -2.655920e-01 -1.816197e+00 72 3 0
-2.174032e-01 -2.609847e-01 -1.818046e+00 168 112 51
-2.177989e-01 -2.613044e-01 -1.815197e+00 168 112 51
-2.320230e-02 -2.507834e-01 -1.765661e+00 156 59 34
-2.220122e-01 -2.584469e-01 -1.820995e+00 92 27 7
2.068474e-01 -2.368662e-01 -1.692099e+00 218 204 177
-4.042125e-01 -2.594407e-01 -1.920038e+00 138 76 32
-2.034882e-01 -2.500171e-01 -1.806464e+00 72 14 2
-2.039297e-01 -2.504280e-01 -1.803548e+00 72 14 2
-3.631088e-01 -2.499617e-01 -1.918571e+00 161 112 41
-2.204087e-01 -2.448623e-01 -1.813113e+00 165 116 46
-2.204087e-01 -2.448623e-01 -1.813113e+00 165 116 46
-2.523572e-01 -2.460927e-01 -1.826143e+00 83 39 0
-9.263645e-02 -2.350417e-01 -1.769441e+00 128 29 0
-3.044408e-01 -2.405516e-01 -1.862674e+00 92 47 0
-1.199470e-01 -2.313538e-01 -1.783010e+00 135 37 2
-1.447586e-03 -2.246968e-01 -1.749778e+00 155 55 32
-2.043045e-01 -2.337415e-01 -1.809009e+00 101 33 1
-1.329169e-01 -2.298672e-01 -1.772318e+00 144 41 6
-2.260286e-01 -2.310049e-01 -1.809925e+00 96 33 1
2.119923e-02 -2.164949e-01 -1.753727e+00 125 25 0
-2.221197e-01 -2.296768e-01 -1.807492e+00 158 101 28
-9.557713e-02 -2.241396e-01 -1.762431e+00 179 78 46
-3.368024e-01 -2.314960e-01 -1.859377e+00 108 56 6
-3.366518e-01 -2.322341e-01 -1.852559e+00 108 56 6
-4.094741e-01 -2.314918e-01 -1.915603e+00 135 73 26
2.897341e-01 -1.963527e-01 -1.692125e+00 217 204 179
-2.336136e-01 -2.268375e-01 -1.819462e+00 115 56 2
-3.842891e-01 -2.304206e-01 -1.881235e+00 122 73 3
-3.510222e-01 -2.280584e-01 -1.863682e+00 104 57 5
-2.073816e-01 -2.186380e-01 -1.801520e+00 70 12 0
-2.073543e-01 -2.184569e-01 -1.802224e+00 70 12 0
-4.539677e-03 -2.056523e-01 -1.750515e+00 154 56 32
-1.122298e-01 -2.137081e-01 -1.764059e+00 135 39 7
-1.412542e-01 -2.136375e-01 -1.785476e+00 175 111 58
4.483697e-02 -2.013662e-01 -1.749796e+00 178 115 72
-3.364495e-02 -2.054182e-01 -1.741479e+00 160 69 40
-2.862118e-02 -2.035984e-01 -1.753109e+00 160 69 40
-3.910999e-01 -2.181859e-01 -1.886795e+00 186 132 74
-3.910999e-01 -2.181859e-01 -1.886795e+00 186 132 74
-2.202590e-01 -2.107663e-01 -1.803625e+00 93 37 2
-2.207542e-01 -2.110941e-01 -1.801856e+00 93 37 2
-3.245920e-01 -2.139694e-01 -1.843353e+00 155 111 41
-1.659874e-01 -2.078211e-01 -1.779380e+00 189 119 57
-4.121519e-01 -2.119628e-01 -1.894535e+00 170 107 61
-1.182964e-01 -1.992122e-01 -1.771131e+00 150 87 18
4.743111e-03 -1.882444e-01 -1.757781e+00 158 65 40
4.804961e-02 -1.814381e-01 -1.756186e+00 187 125 81
-1.174311e-01 -1.938902e-01 -1.768957e+00 74 14 11
-1.352572e-01 -1.958742e-01 -1.768232e+00 154 99 35
-1.133619e-01 -1.924198e-01 -1.765280e+00 157 99 26
-7.903816e-02 -1.888470e-01 -1.761280e+00 142 83 29
-7.903816e-02 -1.888470e-01 -1.761280e+00 142 83 29
-1.076866e-01 -1.904423e-01 -1.763600e+00 88 15 1
-1.086128e-01 -1.910429e-01 -1.760597e+00 88 15 1
-9.914700e-02 -1.893155e-01 -1.755470e+00 72 12 1
-3.631761e-01 -1.985984e-01 -1.862262e+00 104 63 9
-2.958748e-01 -1.955651e-01 -1.829948e+00 112 55 3
-3.384560e-01 -1.936720e-01 -1.852722e+00 103 47 1
-1.228442e-01 -1.861258e-01 -1.763275e+00 149 91 25
-1.359999e-01 -1.811862e-01 -1.770097e+00 163 108 51
-1.358685e-01 -1.812704e-01 -1.770569e+00 163 108 51
-2.183790e-01 -1.807431e-01 -1.800590e+00 165 113 33
-2.188220e-01 -1.814076e-01 -1.797420e+00 165 113 33
-8.530218e-02 -1.750369e-01 -1.752101e+00 76 14 1
-1.090695e-01 -1.756798e-01 -1.760623e+00 94 16 0
-1.088625e-01 -1.754763e-01 -1.761273e+00 94 16 0
-1.035245e-01 -1.744936e-01 -1.760435e+00 154 92 31
-2.280795e-01 -1.808135e-01 -1.798409e+00 167 113 36
-2.277934e-01 -1.804921e-01 -1.801288e+00 167 113 36
1.339443e-02 -1.622207e-01 -1.749009e+00 127 28 0
-3.667498e-01 -1.819466e-01 -1.858622e+00 120 65 1
-3.666660e-01 -1.822164e-01 -1.854518e+00 120 65 1
-3.403022e-01 -1.830689e-01 -1.829345e+00 167 116 36
-9.620909e-03 -1.539475e-01 -1.778808e+00 84 24 2
-9.834729e-03 -1.545892e-01 -1.777254e+00 84 24 2
-2.139545e-01 -1.701610e-01 -1.792784e+00 73 4 0
-2.147564e-01 -1.712136e-01 -1.787586e+00 73 4 0
-4.281265e-02 -1.579284e-01 -1.745221e+00 152 90 37
-3.637086e-01 -1.704393e-01 -1.863743e+00 118 71 0
-3.813238e-02 -1.557247e-01 -1.744387e+00 88 25 0
-2.276745e-01 -1.581864e-01 -1.787882e+00 163 106 30
-2.367962e-01 -1.574961e-01 -1.796029e+00 155 104 23
2.185821e-02 -1.315153e-01 -1.765121e+00 159 102 43
-2.257750e-01 -1.529226e-01 -1.785057e+00 85 33 0
-2.391374e-01 -1.525121e-01 -1.788690e+00 68 9 1
-2.434203e-01 -1.519368e-01 -1.791948e+00 167 117 44
2.592636e-02 -1.299956e-01 -1.743351e+00 105 53 1
-1.895637e-03 -1.346108e-01 -1.739814e+00 89 28 1
-2.900125e-01 -1.501430e-01 -1.821039e+00 91 34 4
-1.345070e-01 -1.467443e-01 -1.750310e+00 150 92 25
-2.360538e-01 -1.452041e-01 -1.794244e+00 154 98 29
-3.375264e-01 -1.462182e-01 -1.841371e+00 93 41 0
-3.415704e-01 -1.487545e-01 -1.833024e+00 158 105 34
-2.009556e-01 -1.392861e-01 -1.777093e+00 133 39 2
-4.049609e-01 -1.372858e-01 -1.869629e+00 177 117 53
-4.049609e-01 -1.372858e-01 -1.869629e+00 177 117 53
-3.846531e-01 -1.336182e-01 -1.870062e+00 153 109 36
-4.231519e-01 -1.318828e-01 -1.887006e+00 133 68 23
-2.489059e-02 -1.131564e-01 -1.726818e+00 153 100 32
-2.196992e-02 -1.107875e-01 -1.733818e+00 153 100 32
-2.104516e-01 -1.209609e-01 -1.772658e+00 175 97 39
-4.073709e-01 -1.201617e-01 -1.874442e+00 179 119 57
-4.079517e-01 -1.186004e-01 -1.883171e+00 179 119 57
-2.867191e-01 -1.173091e-01 -1.809680e+00 175 116 48
-2.922937e-01 -1.226799e-01 -1.790277e+00 172 117 50
-3.074987e-01 -1.198970e-01 -1.805386e+00 174 120 51
-2.512438e-01 -1.141972e-01 -1.796584e+00 139 36 0
-1.159733e-01 -1.083298e-01 -1.738336e+00 145 90 17
-1.663839e-01 -1.051320e-01 -1.756666e+00 75 11 1
7.862273e-03 -8.713548e-02 -1.727668e+00 108 54 1
-7.249881e-02 -8.939488e-02 -1.745544e+00 150 92 37
-1.815636e-01 -9.966326e-02 -1.758153e+00 181 118 53
-7.986222e-02 -8.841831e-02 -1.735607e+00 66 9 4
-6.071814e-02 -8.151050e-02 -1.744581e+00 152 104 45
-1.736404e-01 -9.590133e-02 -1.749281e+00 63 2 0
-1.365526e-01 -8.609489e-02 -1.751830e+00 69 7 0
-1.515699e-01 -8.532016e-02 -1.756936e+00 157 103 36
-1.551470e-01 -9.025460e-02 -1.743673e+00 157 103 36
-1.452807e-01 -8.622378e-02 -1.739889e+00 158 104 44
-1.374608e-01 -8.050320e-02 -1.747159e+00 82 29 2
-1.378961e-01 -8.121644e-02 -1.745181e+00 82 29 2
9.503411e-03 -6.197405e-02 -1.717147e+00 128 71 5
-5.813535e-02 -5.141285e-02 -1.725192e+00 178 126 61
-4.764680e-02 -4.766155e-02 -1.720417e+00 173 119 57
-4.165344e-01 -5.750510e-02 -1.853748e+00 180 104 65
-4.166004e-01 -5.744291e-02 -1.854234e+00 180 104 65
2.502893e-02 -1.253967e-02 -1.712285e+00 183 119 75
-1.738940e-01 -1.809629e-02 -1.750641e+00 159 51 5
-1.671576e-01 -1.596123e-03 -1.777074e+00 253 188 140
-1.656689e-01 9.535793e-03 -1.772895e+00 206 115 71
-2.006463e-01 1.851566e-02 -1.737993e+00 56 54 68
-2.006463e-01 1.851566e-02 -1.737993e+00 56 54 68
-1.842111e-01 2.759599e-02 -1.749399e+00 121 116 123
-1.833991e-01 2.923019e-02 -1.752197e+00 121 116 123
-1.771756e-01 2.033772e-02 -1.727576e+00 184 177 184
-1.767220e-01 2.120542e-02 -1.729309e+00 184 177 184
-3.239793e-01 2.828128e-02 -1.803407e+00 71 68 82
5.790486e-03 7.751471e-02 -1.714391e+00 150 70 42
-2.828412e-03 7.435485e-02 -1.710354e+00 70 3 0
7.572827e-03 8.887653e-02 -1.706763e+00 101 72 61
-3.169531e-01 -1.717806e-01 -1.280113e+00 46 45 59
-2.481358e-01 -1.145507e-01 -1.345062e+00 45 43 57
-1.369307e-01 1.910805e-01 -1.733010e+00 56 43 58
-2.116249e-01 2.039376e-01 -1.780467e+00 60 49 64
-2.307157e-01 1.914110e-01 -1.768654e+00 56 42 62
-1.611524e-01 1.882757e-01 -1.729108e+00 59 45 61
-3.323924e-01 2.097667e-01 -1.820527e+00 107 97 106
-1.074645e-01 2.169726e-01 -1.742661e+00 124 112 116
-1.095176e-01 2.111245e-01 -1.734638e+00 124 112 116
-3.365509e-01 2.234886e-01 -1.835721e+00 58 45 65
-8.929122e-02 2.128876e-01 -1.727250e+00 61 44 54
-8.929122e-02 2.128876e-01 -1.727250e+00 61 44 54
-4.829588e-01 2.021123e-01 -1.856362e+00 205 187 151
-1.994594e-01 2.248382e-01 -1.780874e+00 115 102 104
-1.996682e-01 2.220631e-01 -1.776707e+00 115 102 104
-3.935949e-01 2.127581e-01 -1.831621e+00 65 47 52
-3.576732e-01 2.302359e-01 -1.840151e+00 58 44 61
-3.578421e-01 2.310087e-01 -1.841377e+00 58 44 61
-3.717542e-01 2.246884e-01 -1.831454e+00 58 45 65
7.241751e-03 2.193742e-01 -1.682284e+00 215 197 159
6.314678e-03 2.457661e-01 -1.708179e+00 63 48 43
8.005403e-03 2.481963e-01 -1.710564e+00 63 48 43
-3.781563e-01 2.595196e-01 -1.827701e+00 32 23 47
-3.486663e-01 2.758938e-01 -1.829252e+00 28 24 43
-2.627745e-01 3.112980e-01 -1.831497e+00 46 34 35
-2.661419e-01 2.951227e-01 -1.806793e+00 172 158 154
1.292433e+00 6.814780e-01 -1.576272e+00 58 52 32
-3.825100e-01 -7.788062e-01 -1.861206e+00 158 163 122
-3.320157e-01 -7.564152e-01 -1.845412e+00 156 177 130
-3.996954e-01 -7.677121e-01 -1.880652e+00 154 144 99
-3.056278e-01 -7.527310e-01 -1.863983e+00 45 116 47
-3.730832e-01 -7.508937e-01 -1.881803e+00 147 173 90
-2.628189e-01 -7.408201e-01 -1.844025e+00 150 156 92
-3.350043e-01 -7.513528e-01 -1.888846e+00 62 154 68
3.251049e-01 -6.613243e-01 -1.592869e+00 76 73 59
3.314413e-01 -6.575901e-01 -1.592715e+00 69 66 49
3.257475e-01 -6.038849e-01 -1.573002e+00 65 64 50
3.362421e-01 -6.082545e-01 -1.581512e+00 65 64 50
-1.782273e-01 -6.596526e-01 -1.816268e+00 201 232 147
2.685234e-01 -5.844170e-01 -1.574659e+00 33 31 19
2.715681e-01 -5.871285e-01 -1.606381e+00 88 86 73
7.005793e-01 -5.510469e-01 -1.479903e+00 135 126 76
2.154837e-01 -5.841303e-01 -1.655963e+00 68 66 53
-3.532175e-02 -5.967285e-01 -1.761525e+00 59 106 43
-8.121695e-02 -5.903810e-01 -1.779068e+00 59 93 52
-1.271498e-02 -5.762951e-01 -1.743029e+00 126 209 117
-7.516130e-02 -5.845404e-01 -1.777597e+00 201 195 166
6.742106e-02 -5.775813e-01 -1.740413e+00 137 137 79
-2.671054e-02 -5.772200e-01 -1.759176e+00 15 120 17
-5.727788e-02 -5.794900e-01 -1.774065e+00 65 96 49
5.375998e-01 -4.883951e-01 -1.497843e+00 75 71 59
2.091052e-02 -5.372590e-01 -1.739268e+00 72 107 57
1.757094e-02 -5.354382e-01 -1.740876e+00 174 170 133
7.101458e-02 -5.273935e-01 -1.714254e+00 23 118 18
1.503262e-01 -5.230268e-01 -1.691172e+00 91 104 65
1.511693e-01 -5.232443e-01 -1.692409e+00 91 104 65
2.730695e-01 -5.090786e-01 -1.630305e+00 96 94 81
2.757504e-01 -5.097788e-01 -1.632900e+00 96 94 81
1.361511e-01 -5.195935e-01 -1.693227e+00 29 73 10
2.819255e-01 -5.033033e-01 -1.624505e+00 82 80 66
7.957359e-02 -5.103916e-01 -1.711254e+00 91 155 62
8.709807e-02 -5.099723e-01 -1.710301e+00 188 212 124
1.584432e-01 -5.019774e-01 -1.683549e+00 48 103 43
1.959941e-01 -4.979330e-01 -1.673287e+00 66 81 58
3.009908e-01 -4.874056e-01 -1.622280e+00 57 55 43
3.010535e-01 -4.873391e-01 -1.622327e+00 57 55 43
1.717672e-01 -4.945661e-01 -1.674231e+00 132 161 102
1.731079e-01 -4.918250e-01 -1.670976e+00 23 71 5
1.620413e-01 -4.914328e-01 -1.671261e+00 160 184 124
1.298006e-01 -4.898391e-01 -1.690253e+00 180 220 141
1.541547e-01 -4.885253e-01 -1.696782e+00 171 199 126
1.083166e-01 -4.857478e-01 -1.702272e+00 157 181 116
1.352582e-01 -4.802548e-01 -1.679906e+00 44 88 6
3.246549e-01 -4.664433e-01 -1.611940e+00 58 56 44
1.579667e-01 -4.766393e-01 -1.670414e+00 51 110 43
1.170342e-01 -4.795552e-01 -1.702241e+00 22 18 0
2.209633e-01 -4.706938e-01 -1.670002e+00 154 184 124
1.871248e-01 -4.644181e-01 -1.665712e+00 66 80 19
2.636141e-01 -4.563939e-01 -1.646171e+00 89 78 60
1.898271e-01 -4.568633e-01 -1.664697e+00 51 106 25
3.493925e-01 -4.423637e-01 -1.594480e+00 93 91 78
1.865650e-01 -4.542600e-01 -1.664983e+00 138 190 103
-2.171309e-01 -4.932444e-01 -1.877582e+00 105 39 2
-2.175172e-01 -4.927882e-01 -1.874959e+00 105 39 2
-1.846039e-01 -4.901544e-01 -1.868436e+00 152 89 30
-2.277694e-01 -4.920926e-01 -1.878528e+00 107 40 4
-2.271082e-01 -4.930565e-01 -1.883848e+00 107 40 4
-2.275349e-01 -4.921610e-01 -1.878193e+00 107 40 4
2.450757e-01 -4.489969e-01 -1.647376e+00 181 208 155
-1.749545e-01 -4.872499e-01 -1.858970e+00 102 37 1
-1.819072e-01 -4.872219e-01 -1.860852e+00 94 30 0
2.548739e-01 -4.485474e-01 -1.651132e+00 108 113 70
-1.883733e-01 -4.885599e-01 -1.871047e+00 125 58 2
-1.883733e-01 -4.885599e-01 -1.871047e+00 125 58 2
-2.297686e-01 -4.911628e-01 -1.891617e+00 153 88 24
-2.187204e-01 -4.864026e-01 -1.873716e+00 108 43 4
-2.195574e-01 -4.847521e-01 -1.865684e+00 108 43 4
2.585257e-01 -4.457614e-01 -1.645667e+00 98 75 37
-2.273783e-01 -4.867841e-01 -1.880041e+00 116 47 8
2.458484e-01 -4.436825e-01 -1.644923e+00 186 194 137
-4.385521e-02 -4.784902e-01 -1.838195e+00 139 45 30
1.224255e-01 -4.812037e-01 -1.850728e+00 140 118 88
-5.110809e-02 -4.735431e-01 -1.829753e+00 101 5 2
2.470210e-01 -4.354155e-01 -1.638075e+00 180 168 119
-3.323345e-01 -4.936007e-01 -1.960154e+00 178 106 56
-8.006662e-02 -4.711596e-01 -1.837190e+00 146 56 37
2.380551e-01 -4.354659e-01 -1.644995e+00 104 123 61
2.303221e-01 -4.358413e-01 -1.647709e+00 199 221 148
-2.071375e-01 -4.658554e-01 -1.865313e+00 145 80 23
-1.941735e-01 -4.664546e-01 -1.870772e+00 122 48 3
-1.792853e-01 -4.615108e-01 -1.849811e+00 102 34 2
-2.109666e-01 -4.648336e-01 -1.869287e+00 92 30 0
-1.792035e-01 -4.582875e-01 -1.855764e+00 96 29 3
-2.239485e-01 -4.596666e-01 -1.874124e+00 156 95 40
-2.389220e-01 -4.594667e-01 -1.872603e+00 154 84 28
-2.953162e-01 -4.654935e-01 -1.906834e+00 102 42 2
2.311140e-01 -4.198523e-01 -1.654558e+00 76 118 53
-1.132485e-02 -4.451517e-01 -1.811311e+00 88 6 6
-1.813108e-01 -4.485968e-01 -1.855286e+00 96 27 2
-1.818833e-01 -4.481734e-01 -1.850484e+00 96 27 2
-2.054030e-01 -4.497427e-01 -1.858671e+00 86 17 2
-2.138351e-01 -4.495185e-01 -1.862733e+00 89 27 1
-2.262639e-01 -4.445652e-01 -1.869018e+00 157 93 42
-3.293243e-01 -4.490993e-01 -1.908239e+00 116 59 10
-2.328634e-02 -4.332506e-01 -1.807460e+00 89 1 2
-3.348723e-01 -4.504612e-01 -1.944725e+00 153 99 37
4.332373e-01 -3.892853e-01 -1.570932e+00 75 73 60
4.408066e-01 -3.898730e-01 -1.576230e+00 75 73 60
-3.533180e-01 -4.460419e-01 -1.946264e+00 178 111 57
-3.503828e-02 -4.230656e-01 -1.817503e+00 134 37 21
4.270614e-01 -3.828844e-01 -1.563642e+00 70 68 56
-2.353976e-01 -4.299531e-01 -1.869396e+00 155 84 25
-3.914014e-01 -4.435219e-01 -2.000465e+00 138 93 51
3.451662e-01 -3.866597e-01 -1.633818e+00 74 71 53
-2.309264e-01 -4.151592e-01 -1.852843e+00 97 27 3
-3.015611e-01 -4.216574e-01 -1.900957e+00 159 94 41
-3.015952e-01 -4.210539e-01 -1.895816e+00 159 94 41
3.574797e-01 -3.788752e-01 -1.629547e+00 71 68 58
3.571214e-01 -3.788441e-01 -1.629291e+00 71 68 58
-2.981185e-01 -4.196316e-01 -1.900263e+00 113 46 4
-3.427894e-01 -4.141600e-01 -1.923460e+00 160 100 40
-3.473651e-01 -3.989153e-01 -1.918141e+00 164 105 39
4.211357e-01 -3.512579e-01 -1.608036e+00 91 89 77
-2.166632e-01 -3.825014e-01 -1.839730e+00 103 42 6
-8.804649e-02 -3.731640e-01 -1.793989e+00 141 42 22
-3.185859e-01 -3.862914e-01 -1.898441e+00 108 48 1
-1.062454e-01 -3.713689e-01 -1.799325e+00 154 62 44
-1.038950e-01 -3.720786e-01 -1.808109e+00 154 62 44
-1.084661e-01 -3.694608e-01 -1.808123e+00 98 12 4
-1.486804e-01 -3.725305e-01 -1.831542e+00 180 82 47
-2.012602e-01 -3.722582e-01 -1.837833e+00 96 29 1
-5.147501e-02 -3.617413e-01 -1.789270e+00 129 36 19
-4.853206e-02 -3.622657e-01 -1.798464e+00 129 36 19
-3.555397e-01 -3.792875e-01 -1.910506e+00 160 107 36
-3.561765e-01 -3.799565e-01 -1.924191e+00 160 107 36
-7.854770e-02 -3.609891e-01 -1.791272e+00 87 11 4
-1.177366e-01 -3.599544e-01 -1.807820e+00 91 0 0
-1.151840e-01 -3.602841e-01 -1.817009e+00 91 0 0
-1.974561e-01 -3.644135e-01 -1.844467e+00 159 96 34
-6.700991e-02 -3.544828e-01 -1.801935e+00 136 43 28
-8.628558e-02 -3.549470e-01 -1.821577e+00 141 54 34
-7.771614e-02 -3.519715e-01 -1.798952e+00 82 2 1
-1.889767e-02 -3.475965e-01 -1.792856e+00 80 1 0
-3.627527e-02 -3.477318e-01 -1.793014e+00 95 6 2
4.479833e-03 -3.410082e-01 -1.767627e+00 95 2 2
-1.585335e-01 -3.489966e-01 -1.810315e+00 140 53 17
-3.596430e-01 -3.598289e-01 -1.913947e+00 124 62 3
-3.596430e-01 -3.598289e-01 -1.913947e+00 124 62 3
-2.072558e-02 -3.413662e-01 -1.789249e+00 79 1 0
9.732809e-03 -3.391864e-01 -1.804664e+00 131 37 24
-1.714684e-01 -3.465236e-01 -1.827811e+00 126 48 5
-3.793276e-02 -3.382260e-01 -1.791923e+00 135 46 28
-1.972839e-01 -3.456142e-01 -1.827986e+00 158 99 25
1.263298e-01 -3.321162e-01 -1.779676e+00 51 44 36
4.906059e-01 -3.124596e-01 -1.629295e+00 60 54 41
-4.335043e-02 -3.354673e-01 -1.786293e+00 104 3 4
-3.642990e-01 -3.521323e-01 -1.918997e+00 116 56 1
-1.884850e-02 -3.313255e-01 -1.780095e+00 95 9 5
-2.431531e-01 -3.407175e-01 -1.845276e+00 99 35 1
-1.357303e-01 -3.350613e-01 -1.819844e+00 126 34 1
-2.035456e-01 -3.371055e-01 -1.821920e+00 150 92 48
-3.844189e-01 -3.487095e-01 -1.934267e+00 133 56 13
4.574920e-01 -3.050842e-01 -1.616100e+00 57 53 42
-2.397546e-01 -3.387682e-01 -1.842806e+00 161 105 46
-2.095861e-01 -3.356625e-01 -1.836394e+00 159 101 32
-2.443934e-01 -3.339566e-01 -1.836250e+00 107 45 8
-7.965925e-03 -3.200627e-01 -1.772478e+00 89 3 0
-1.394259e-01 -3.233884e-01 -1.817939e+00 135 45 11
-2.446410e-01 -3.287352e-01 -1.843123e+00 152 95 28
-2.340070e-01 -3.270331e-01 -1.838825e+00 85 28 0
-3.636762e-01 -3.339181e-01 -1.911423e+00 167 104 32
-3.914963e-01 -3.358188e-01 -1.940063e+00 163 99 55
-1.073763e-01 -3.198640e-01 -1.794417e+00 74 1 1
7.419049e-02 -3.116210e-01 -1.790107e+00 151 129 87
-2.416252e-01 -3.257244e-01 -1.839738e+00 99 45 3
-6.411566e-02 -3.165657e-01 -1.785119e+00 83 0 0
-2.556918e-01 -3.250211e-01 -1.842542e+00 99 42 1
-1.214197e-01 -3.162553e-01 -1.792245e+00 144 41 25
-1.428383e-01 -3.135519e-01 -1.834115e+00 132 48 12
-1.242434e-01 -3.138746e-01 -1.821002e+00 181 87 53
-1.235266e-01 -3.138578e-01 -1.822873e+00 181 87 53
-7.360734e-02 -3.087734e-01 -1.780698e+00 150 55 45
-7.241038e-02 -3.090198e-01 -1.784180e+00 150 55 45
-1.145868e-01 -3.093984e-01 -1.800690e+00 136 40 24
-7.685866e-02 -3.069874e-01 -1.781937e+00 101 6 6
-3.692153e-01 -3.205149e-01 -1.895829e+00 128 69 1
-1.088242e-01 -3.052448e-01 -1.790836e+00 79 3 2
-9.796830e-02 -3.021089e-01 -1.784476e+00 71 0 0
-3.167725e-02 -2.979798e-01 -1.780943e+00 72 0 0
-1.538939e-01 -3.034474e-01 -1.805812e+00 179 82 46
-2.114109e-02 -2.956621e-01 -1.773074e+00 84 0 0
-5.170211e-02 -2.973467e-01 -1.779827e+00 89 1 0
-2.620868e-01 -3.077249e-01 -1.848065e+00 83 22 1
-2.603256e-01 -3.044528e-01 -1.838228e+00 165 105 41
-2.659816e-02 -2.906055e-01 -1.775594e+00 78 1 1
4.577666e-01 -2.633463e-01 -1.649722e+00 216 203 152
-2.894389e-01 -2.999357e-01 -1.854741e+00 95 41 8
-4.820128e-02 -2.877087e-01 -1.775414e+00 87 0 0
-3.124686e-01 -2.991483e-01 -1.891345e+00 82 22 0
2.768958e-01 -2.697017e-01 -1.735514e+00 29 26 14
-1.797383e-01 -2.860517e-01 -1.814999e+00 131 45 7
-1.075733e-01 -2.826420e-01 -1.787700e+00 183 83 53
-3.114901e-02 -2.765700e-01 -1.782244e+00 86 3 1
-3.941038e-01 -2.928300e-01 -1.923525e+00 133 60 15
2.845615e-01 -2.591164e-01 -1.702024e+00 66 65 47
4.647062e-01 -2.482485e-01 -1.666444e+00 216 199 156
6.999242e-02 -2.658652e-01 -1.781014e+00 146 120 75
-7.693061e-02 -2.726492e-01 -1.781074e+00 167 64 36
-2.233902e-01 -2.794964e-01 -1.834649e+00 155 102 25
-4.036270e-01 -2.831643e-01 -1.928074e+00 141 84 38
-3.524718e-01 -2.822193e-01 -1.879476e+00 158 105 37
-4.001829e-01 -2.830123e-01 -1.933667e+00 167 97 54
-2.107593e-01 -2.749392e-01 -1.813110e+00 87 29 10
-2.155772e-01 -2.695972e-01 -1.799805e+00 149 90 10
-2.807313e-02 -2.558148e-01 -1.768468e+00 158 66 39
-1.530248e-01 -2.537257e-01 -1.940962e+00 201 113 77
-3.985760e-01 -2.658039e-01 -1.909799e+00 135 62 19
-9.033569e-03 -2.439636e-01 -1.767409e+00 156 61 36
-9.193400e-03 -2.441714e-01 -1.766293e+00 156 61 36
-2.675209e-01 -2.522868e-01 -1.832808e+00 152 98 22
-3.334369e-02 -2.401140e-01 -1.761232e+00 154 64 37
-2.236946e-01 -2.475782e-01 -1.818140e+00 100 42 3
-2.236946e-01 -2.475782e-01 -1.818140e+00 100 42 3
-2.096840e-01 -2.452217e-01 -1.810146e+00 178 131 60
-9.948721e-02 -2.392957e-01 -1.761624e+00 171 82 48
-3.534533e-01 -2.491581e-01 -1.873904e+00 104 53 0
1.196555e-02 -2.305465e-01 -1.752644e+00 152 58 33
-8.867309e-02 -2.366596e-01 -1.766313e+00 167 70 38
-2.254046e-01 -2.432828e-01 -1.812379e+00 96 37 4
-2.254104e-01 -2.432941e-01 -1.812659e+00 96 37 4
-3.639196e-01 -2.430007e-01 -1.902697e+00 111 60 5
-3.829183e-01 -2.443807e-01 -1.893211e+00 137 85 10
-3.096939e-01 -2.412059e-01 -1.847927e+00 167 123 55
-3.097171e-01 -2.412002e-01 -1.848162e+00 167 123 55
-3.168010e-01 -2.340566e-01 -1.860350e+00 163 110 33
-4.224476e-02 -2.209094e-01 -1.753328e+00 159 65 39
-8.492941e-02 -2.222737e-01 -1.766617e+00 180 85 55
-9.035866e-02 -2.239916e-01 -1.763371e+00 123 23 4
-3.837895e-02 -2.170103e-01 -1.755918e+00 119 23 1
-2.264277e-01 -2.273507e-01 -1.809027e+00 105 46 6
-2.261854e-01 -2.271891e-01 -1.810547e+00 105 46 6
2.805666e-01 -1.978306e-01 -1.670722e+00 215 198 163
-3.355486e-01 -2.266683e-01 -1.861435e+00 156 100 22
-3.566994e-01 -2.243563e-01 -1.869819e+00 163 114 43
-3.842375e-01 -2.245162e-01 -1.886181e+00 155 113 40
-5.668431e-02 -2.110087e-01 -1.751600e+00 120 21 0
-1.520556e-01 -2.162338e-01 -1.777221e+00 180 108 51
-3.503155e-01 -2.232454e-01 -1.862267e+00 153 101 23
-3.329136e-02 -2.087890e-01 -1.750996e+00 163 62 36
-3.249088e-01 -2.183051e-01 -1.859188e+00 128 71 4
-2.287292e-01 -2.148986e-01 -1.809252e+00 77 28 2
-2.277886e-01 -2.141415e-01 -1.817897e+00 77 28 2
-3.039813e-01 -2.173728e-01 -1.832502e+00 153 103 25
-2.952968e-01 -2.138948e-01 -1.839004e+00 107 55 3
-3.843939e-01 -2.114881e-01 -1.903576e+00 162 115 43
-2.972507e-01 -2.116201e-01 -1.826647e+00 106 56 4
-4.170337e-01 -2.121976e-01 -1.907887e+00 139 94 45
-3.333819e-01 -2.081768e-01 -1.865919e+00 156 114 42
-4.080331e-01 -2.090221e-01 -1.904895e+00 129 55 11
-1.226311e-01 -1.991082e-01 -1.773464e+00 91 27 0
-3.814855e-01 -2.023468e-01 -1.879117e+00 129 73 1
-3.818008e-01 -2.016721e-01 -1.884440e+00 129 73 1
-9.282817e-02 -1.922687e-01 -1.756853e+00 72 12 0
-9.178234e-02 -1.919102e-01 -1.760504e+00 72 12 0
-2.890152e-01 -1.995699e-01 -1.829685e+00 121 56 2
-1.021859e-01 -1.895285e-01 -1.763696e+00 152 91 26
-8.562084e-02 -1.894726e-01 -1.755546e+00 70 15 1
-3.180050e-01 -1.958084e-01 -1.840705e+00 119 59 1
-3.180869e-01 -1.958370e-01 -1.840413e+00 119 59 1
-3.580599e-01 -1.961698e-01 -1.861390e+00 113 68 5
-3.611888e-01 -1.952698e-01 -1.851797e+00 162 114 46
-6.571631e-02 -1.806150e-01 -1.752057e+00 152 97 49
-6.571631e-02 -1.806150e-01 -1.752057e+00 152 97 49
-1.320964e-01 -1.834805e-01 -1.767913e+00 84 24 5
-2.114721e-01 -1.862970e-01 -1.793836e+00 95 35 2
-6.913859e-02 -1.773414e-01 -1.753190e+00 84 22 10
-4.176080e-01 -1.859478e-01 -1.906442e+00 145 77 31
-1.326911e-01 -1.795051e-01 -1.766935e+00 77 14 3
-1.335367e-01 -1.802916e-01 -1.763741e+00 77 14 3
-2.225340e-01 -1.835203e-01 -1.800037e+00 115 60 1
-3.448349e-01 -1.865766e-01 -1.851979e+00 161 107 35
-3.406716e-01 -1.866995e-01 -1.847491e+00 126 69 5
-3.408257e-01 -1.848926e-01 -1.857936e+00 126 69 5
-1.140683e-01 -1.760492e-01 -1.762530e+00 163 96 31
-7.283393e-02 -1.736510e-01 -1.743986e+00 141 81 22
-3.938788e-01 -1.806149e-01 -1.891393e+00 123 74 9
-2.245829e-01 -1.794994e-01 -1.793752e+00 110 50 2
-2.684794e-01 -1.802888e-01 -1.810951e+00 129 70 4
-2.684794e-01 -1.802888e-01 -1.810951e+00 129 70 4
-2.337562e-01 -1.796616e-01 -1.793585e+00 112 50 4
-2.820084e-01 -1.803513e-01 -1.821384e+00 115 64 0
-3.751133e-01 -1.804090e-01 -1.869107e+00 125 73 1
-3.358501e-01 -1.796013e-01 -1.844551e+00 114 62 2
-3.360126e-01 -1.783111e-01 -1.851500e+00 114 62 2
-3.154832e-01 -1.770830e-01 -1.836071e+00 119 69 3
-9.442527e-02 -1.664706e-01 -1.760383e+00 145 84 18
-3.245154e-01 -1.759278e-01 -1.836670e+00 165 119 44
-3.246424e-01 -1.767043e-01 -1.832217e+00 165 119 44
-3.606269e-01 -1.665093e-01 -1.879883e+00 155 109 31
2.071495e-02 -1.536188e-01 -1.755743e+00 180 113 65
2.287872e-02 -1.521852e-01 -1.760097e+00 180 113 65
-3.285339e-01 -1.724816e-01 -1.847922e+00 120 74 3
-2.357193e-01 -1.682705e-01 -1.804788e+00 84 18 0
-3.870629e-01 -1.697028e-01 -1.875785e+00 124 72 2
-2.317553e-01 -1.654724e-01 -1.798469e+00 160 102 41
-2.315332e-01 -1.650845e-01 -1.799407e+00 160 102 41
-4.676769e-02 -1.552005e-01 -1.744564e+00 83 18 2
-2.397796e-01 -1.666852e-01 -1.793169e+00 168 111 59
-4.359978e-02 -1.547432e-01 -1.742590e+00 148 85 32
-2.369723e-01 -1.637350e-01 -1.791136e+00 96 35 9
-2.430338e-01 -1.635714e-01 -1.800423e+00 88 21 10
-2.431699e-01 -1.633284e-01 -1.800473e+00 88 21 10
-1.598339e-01 -1.528930e-01 -1.795420e+00 149 94 28
-2.026680e-01 -1.585339e-01 -1.787300e+00 183 118 60
-9.871493e-02 -1.530894e-01 -1.751279e+00 108 40 1
-9.793128e-02 -1.524217e-01 -1.754034e+00 108 40 1
-6.589991e-02 -1.432105e-01 -1.753577e+00 142 81 24
-2.574770e-01 -1.556886e-01 -1.798810e+00 151 98 27
-2.758950e-01 -1.556458e-01 -1.806151e+00 99 38 11
-2.606154e-01 -1.505021e-01 -1.815799e+00 88 35 0
-3.898236e-01 -1.534631e-01 -1.874503e+00 130 82 5
-2.543451e-01 -1.514178e-01 -1.803106e+00 75 20 2
-2.722552e-01 -1.521447e-01 -1.807458e+00 166 120 52
-3.755157e-01 -1.497960e-01 -1.874426e+00 138 87 22
-2.648603e-01 -1.509066e-01 -1.808481e+00 158 110 46
-2.648603e-01 -1.509066e-01 -1.808481e+00 158 110 46
1.542693e-02 -1.325479e-01 -1.733231e+00 153 99 37
-3.038961e-01 -1.492251e-01 -1.826229e+00 102 49 2
-3.038930e-01 -1.498767e-01 -1.823892e+00 102 49 2
-2.944906e-01 -1.525422e-01 -1.806699e+00 154 104 40
-1.599557e-01 -1.447599e-01 -1.766638e+00 153 95 38
-2.596650e-01 -1.499266e-01 -1.795413e+00 161 109 52
-3.102251e-01 -1.494766e-01 -1.824918e+00 96 40 3
-3.325244e-01 -1.503085e-01 -1.828835e+00 152 99 32
-3.324339e-01 -1.504088e-01 -1.828682e+00 152 99 32
-1.644784e-01 -1.445698e-01 -1.762944e+00 69 6 0
2.764504e-02 -1.281597e-01 -1.737739e+00 178 114 63
-2.633596e-01 -1.489423e-01 -1.793997e+00 101 41 5
-1.052114e-01 -1.371395e-01 -1.747468e+00 75 11 0
-1.034438e-01 -1.356963e-01 -1.753064e+00 75 11 0
-3.668753e-01 -1.438933e-01 -1.858179e+00 153 105 32
-3.660981e-01 -1.387064e-01 -1.853899e+00 121 74 6
-3.846372e-01 -1.410509e-01 -1.857503e+00 119 71 7
-3.592227e-01 -1.370745e-01 -1.846488e+00 95 47 1
-1.010014e-01 -1.289130e-01 -1.739667e+00 83 22 9
-2.046680e-01 -1.319723e-01 -1.782148e+00 183 105 54
-2.306309e-01 -1.314076e-01 -1.790981e+00 77 16 1
-2.299731e-01 -1.287718e-01 -1.801220e+00 77 16 1
-5.380113e-02 -1.191353e-01 -1.737773e+00 150 86 33
-1.622461e-01 -1.256076e-01 -1.764422e+00 168 112 65
-1.631691e-01 -1.268039e-01 -1.760447e+00 168 112 65
-3.742731e-01 -1.274412e-01 -1.857709e+00 161 107 42
-2.460878e-01 -1.258522e-01 -1.793130e+00 74 13 0
-2.329629e-01 -1.280237e-01 -1.776256e+00 97 33 5
-1.625133e-01 -1.189295e-01 -1.772840e+00 92 31 0
-1.635620e-01 -1.206312e-01 -1.767370e+00 92 31 0
-2.402957e-01 -1.275702e-01 -1.780437e+00 89 34 1
6.891290e-03 -1.052657e-01 -1.726144e+00 110 52 0
3.569411e-02 -9.723314e-02 -1.732323e+00 178 115 73
4.105560e-02 -9.415954e-02 -1.741642e+00 178 115 73
-4.030367e-01 -1.181887e-01 -1.872804e+00 120 66 4
4.187274e-02 -9.531950e-02 -1.735873e+00 115 63 16
-3.752397e-01 -1.132988e-01 -1.845876e+00 164 104 37
-3.875252e-01 -1.115690e-01 -1.859533e+00 86 33 2
1.343272e-02 -9.316075e-02 -1.725787e+00 129 72 6
1.260925e-02 -8.937202e-02 -1.734143e+00 153 100 33
-3.906654e-01 -1.108597e-01 -1.847797e+00 162 114 49
-2.842074e-01 -1.128383e-01 -1.787692e+00 187 98 63
-2.876197e-01 -1.064844e-01 -1.809326e+00 131 51 14
-3.883387e-01 -1.052282e-01 -1.859281e+00 103 50 5
-3.875149e-01 -1.077592e-01 -1.850916e+00 103 50 5
-4.003088e-01 -1.060389e-01 -1.858772e+00 110 58 8
-3.690118e-01 -1.070318e-01 -1.839602e+00 170 123 63
-7.313035e-02 -9.531105e-02 -1.731600e+00 92 27 1
-7.067827e-02 -9.279761e-02 -1.737047e+00 92 27 1
-7.889254e-02 -9.237714e-02 -1.741886e+00 66 8 4
-3.935395e-01 -1.048671e-01 -1.846515e+00 121 79 6
-3.937579e-01 -1.030567e-01 -1.854097e+00 121 79 6
-3.201685e-03 -8.458100e-02 -1.728422e+00 155 101 32
-1.031124e-01 -9.284163e-02 -1.741057e+00 72 13 7
-7.160129e-02 -8.842160e-02 -1.729444e+00 98 36 0
-7.160129e-02 -8.842160e-02 -1.729444e+00 98 36 0
-1.817093e-01 -9.373985e-02 -1.757775e+00 176 110 34
-3.660790e-01 -9.816782e-02 -1.832811e+00 178 104 68
1.387579e-02 -7.510674e-02 -1.726495e+00 128 69 5
-1.749089e-01 -9.158259e-02 -1.760134e+00 146 88 30
3.575693e-03 -7.887291e-02 -1.716841e+00 156 103 36
9.661081e-03 -7.468857e-02 -1.727753e+00 156 103 36
-1.494030e-01 -9.058878e-02 -1.750402e+00 93 31 0
-4.291318e-01 -8.958167e-02 -1.880150e+00 130 65 19
-6.014627e-02 -8.022150e-02 -1.735070e+00 73 26 8
-5.586351e-02 -8.059013e-02 -1.725785e+00 77 32 3
-3.596170e-02 -7.147072e-02 -1.743952e+00 159 112 61
-1.494184e-01 -8.684283e-02 -1.742355e+00 97 33 7
-1.714728e-01 -8.530682e-02 -1.757648e+00 76 21 0
-3.754887e-01 -9.280630e-02 -1.829452e+00 179 95 58
-3.765630e-01 -8.860925e-02 -1.841981e+00 179 95 58
-1.575529e-01 -8.358003e-02 -1.754651e+00 86 26 6
-1.223912e-01 -8.178702e-02 -1.739122e+00 151 94 29
-3.678912e-02 -7.191239e-02 -1.727655e+00 81 32 0
-1.297575e-01 -7.991135e-02 -1.743251e+00 80 27 10
-1.300325e-01 -8.011312e-02 -1.742024e+00 80 27 10
-1.483697e-01 -8.237381e-02 -1.740663e+00 105 47 9
-1.460264e-01 -7.943768e-02 -1.747703e+00 105 47 9
-3.622228e-01 -8.743374e-02 -1.813416e+00 184 81 48
-1.592295e-01 -7.672680e-02 -1.752240e+00 163 104 25
-3.607150e-02 -6.965411e-02 -1.717837e+00 145 91 31
-1.474873e-01 -7.476310e-02 -1.750199e+00 164 110 42
-1.365275e-01 -6.589781e-02 -1.756183e+00 128 37 2
-3.599900e-01 -8.074902e-02 -1.806088e+00 182 84 47
-3.599900e-01 -8.074902e-02 -1.806088e+00 182 84 47
-3.811747e-04 -5.182991e-02 -1.727300e+00 110 53 0
-3.425245e-02 -3.994523e-02 -1.721110e+00 172 122 55
-2.725674e-01 -1.890106e-02 -1.792754e+00 197 81 39
-2.801859e-01 -1.865736e-02 -1.793667e+00 206 99 55
-2.997590e-01 -2.100068e-02 -1.786483e+00 239 145 101
-1.665989e-01 1.046479e-04 -1.759858e+00 186 114 78
2.663136e-02 1.104113e-02 -1.706105e+00 145 83 40
3.133159e-02 1.588635e-02 -1.713986e+00 145 83 40
-3.398696e-01 -1.187638e-02 -1.797243e+00 193 90 49
-1.446469e-01 1.575747e-02 -1.774891e+00 222 150 120
-1.575115e-01 1.488446e-02 -1.771730e+00 131 28 9
-1.529697e-01 1.068234e-02 -1.758888e+00 132 30 9
-1.876027e-01 1.624541e-02 -1.733451e+00 39 32 38
2.654749e-02 4.922277e-02 -1.710445e+00 177 89 46
-1.658103e-01 2.431184e-02 -1.730268e+00 89 83 98
-1.787303e-01 2.906723e-02 -1.745609e+00 16 10 20
-1.861628e-01 2.843051e-02 -1.743074e+00 14 12 26
-3.341337e-01 2.940545e-02 -1.806143e+00 79 77 90
4.615873e-03 8.003797e-02 -1.702433e+00 82 25 5
8.783569e-03 9.672105e-02 -1.707048e+00 30 18 23
-3.410420e-01 1.356619e-01 -1.794098e+00 54 53 67
-1.223649e-01 1.964043e-01 -1.737802e+00 57 44 61
-1.405948e-01 1.930686e-01 -1.738906e+00 111 100 110
-1.381624e-01 1.983543e-01 -1.744085e+00 111 100 110
-2.046796e-01 1.883936e-01 -1.756124e+00 56 44 55
-2.367827e-01 1.929510e-01 -1.773208e+00 58 47 63
-2.529017e-01 2.034506e-01 -1.796400e+00 117 103 111
-2.524261e-01 2.104636e-01 -1.806605e+00 117 103 111
-1.537966e-01 1.980889e-01 -1.740955e+00 62 47 61
-1.196349e-01 2.040236e-01 -1.734473e+00 63 49 66
-1.340269e-01 2.067490e-01 -1.744455e+00 121 108 118
-9.194359e-02 2.017111e-01 -1.718028e+00 112 96 101
-1.773441e-01 2.096518e-01 -1.761315e+00 120 108 119
-1.819511e-01 2.094381e-01 -1.763345e+00 60 49 62
-1.825884e-01 2.056312e-01 -1.757881e+00 60 49 62
-1.457161e-01 2.170958e-01 -1.758648e+00 124 104 106
-1.901453e-01 2.082447e-01 -1.763116e+00 58 46 60
-9.827295e-02 2.022071e-01 -1.718141e+00 113 99 105
-1.580253e-01 2.106883e-01 -1.752902e+00 122 108 110
-1.624470e-01 2.136913e-01 -1.759163e+00 63 47 58
-3.529612e-01 2.065961e-01 -1.820630e+00 56 40 52
-3.524734e-01 2.115828e-01 -1.826997e+00 56 40 52
-1.990570e-01 2.067451e-01 -1.760849e+00 66 54 61
-2.192390e-01 2.190467e-01 -1.784070e+00 46 36 49
-2.357321e-01 2.182898e-01 -1.788854e+00 50 38 48
-2.349105e-01 2.192387e-01 -1.789452e+00 50 38 48
-2.408187e-01 2.172502e-01 -1.789831e+00 51 37 44
-2.290244e-01 2.138694e-01 -1.779350e+00 29 18 35
-1.688009e-01 2.249426e-01 -1.772228e+00 112 97 101
-1.688009e-01 2.249426e-01 -1.772228e+00 112 97 101
-3.554682e-01 2.207742e-01 -1.833469e+00 112 99 116
-3.556355e-01 2.210844e-01 -1.834129e+00 112 99 116
-1.142163e-01 2.074619e-01 -1.724266e+00 59 46 55
-1.061196e-01 2.286984e-01 -1.751990e+00 59 46 55
-2.241891e-01 2.268567e-01 -1.791885e+00 108 96 106
-3.496139e-01 2.116528e-01 -1.814284e+00 61 47 62
-1.518339e-01 2.300955e-01 -1.764588e+00 65 50 57
-1.526428e-01 2.274548e-01 -1.761057e+00 65 50 57
-1.693335e-01 2.265025e-01 -1.765097e+00 65 52 64
-1.694746e-01 2.262676e-01 -1.765088e+00 65 52 64
-1.979325e-01 2.398025e-01 -1.795829e+00 62 48 61
-2.470971e-01 2.216163e-01 -1.786251e+00 69 52 60
-1.647762e-01 1.464081e-01 -1.650024e+00 116 101 100
-4.735173e-01 2.150659e-01 -1.851004e+00 103 84 82
-5.387504e-03 2.303446e-01 -1.693385e+00 109 94 87
1.050214e-03 2.308652e-01 -1.682516e+00 110 93 69
-4.753496e-01 2.443926e-01 -1.870277e+00 197 182 142
-2.348644e-02 2.210603e-01 -1.662470e+00 87 72 50
-4.587479e-01 2.626152e-01 -1.872201e+00 199 186 145
-1.178770e-01 3.254947e-01 -1.799363e+00 37 30 46
-1.175205e-01 3.283520e-01 -1.803371e+00 37 30 46
-2.927509e-01 3.234945e-01 -1.859137e+00 129 118 125
-1.213154e-01 3.222641e-01 -1.790550e+00 85 76 86
-1.350718e-01 3.110678e-01 -1.780307e+00 100 88 96
2.161217e-01 -3.152581e-01 -1.963883e+00 199 177 138
2.882163e-01 -4.156513e-01 -1.635592e+00 162 118 71
2.882163e-01 -4.156513e-01 -1.635592e+00 162 118 71
2.890140e-01 -5.992018e-01 -2.045350e+00 114 93 59
-2.063317e-01 -1.507524e-01 -1.778552e+00 169 110 49
5.588888e-02 -4.931943e-01 -1.663288e+00 188 203 140
1.542841e-01 -4.570721e-01 -1.656985e+00 7 80 9
2.055033e-01 -4.336574e-01 -1.647336e+00 22 88 20
2.262858e-01 -4.270682e-01 -1.644292e+00 22 84 10
1.495439e-01 -4.555603e-01 -1.666124e+00 198 209 157
2.354709e-01 -4.447446e-01 -1.636446e+00 163 174 125
1.775231e-01 -4.422325e-01 -1.659816e+00 30 115 30
-2.466116e-01 -1.266835e-01 -1.771744e+00 149 89 23
-9.715978e-02 -9.416947e-02 -1.748973e+00 85 32 6
-1.366600e-01 -7.874323e-02 -1.738542e+00 146 85 27
2.041723e-01 -6.715140e-01 -1.648646e+00 98 90 64
1.507937e-01 -4.626017e-01 -1.648742e+00 26 96 17
3.376352e-01 -3.942519e-01 -1.626886e+00 124 116 90
-1.026654e-01 -3.075613e-01 -1.838879e+00 82 2 0
-2.960882e-01 -3.018294e-01 -1.872094e+00 98 47 1
1.170097e-01 -3.369466e-01 -1.870557e+00 212 193 156
6.819541e-01 -6.835162e-01 -1.500494e+00 186 177 131
4.728144e-01 -4.949557e-01 -1.488485e+00 92 90 69
7.215444e-04 -5.161762e-01 -1.684760e+00 15 71 12
8.571387e-02 -5.087604e-01 -1.650794e+00 27 35 12
-2.039290e-01 -4.941228e-01 -1.895399e+00 101 43 0
-4.378330e-02 -3.794806e-01 -1.846803e+00 82 0 0
-1.340058e-02 -3.683327e-01 -1.854781e+00 127 38 23
-8.560866e-02 -3.567162e-01 -1.836354e+00 93 12 5
-1.256567e-01 -3.496130e-01 -1.833997e+00 130 40 6
-1.954520e-01 -2.800591e-01 -1.829315e+00 90 40 2
-3.652203e-01 -2.412717e-01 -1.906995e+00 114 63 2
-3.658342e-01 -2.413792e-01 -1.890582e+00 114 63 2
-2.096716e-01 -2.126747e-01 -1.799802e+00 92 41 3
-3.421920e-01 -2.108673e-01 -1.863446e+00 151 104 34
-1.144684e-01 -1.898492e-01 -1.780540e+00 84 24 2
-3.524166e-01 -1.939516e-01 -1.861885e+00 154 104 35
-2.156668e-01 -1.694287e-01 -1.785078e+00 94 31 0
-2.282688e-01 -1.663466e-01 -1.786386e+00 105 44 2
-3.861495e-01 -1.718950e-01 -1.876598e+00 123 71 0
-2.228079e-01 -1.605200e-01 -1.786439e+00 153 99 24
-2.228504e-01 -1.358780e-01 -1.771525e+00 81 21 0
-3.898242e-01 -1.353373e-01 -1.865295e+00 155 110 37
-4.973772e-02 -1.129935e-01 -1.764273e+00 96 32 0
-1.564579e-01 -1.094247e-01 -1.755802e+00 69 19 0
-3.976935e-01 -9.974854e-02 -1.849936e+00 162 111 46
1.865401e-01 -6.000856e-01 -1.512922e+00 30 28 19
2.278238e-01 -5.651322e-01 -1.549131e+00 109 108 95
1.141997e-01 -4.870583e-01 -1.648480e+00 36 108 36
1.170966e-01 -4.889613e-01 -1.651775e+00 36 108 36
1.466045e-01 -4.834299e-01 -1.645047e+00 112 138 91
1.665681e-01 -4.640395e-01 -1.650177e+00 39 84 22
3.273932e-01 -3.956063e-01 -1.631976e+00 119 101 64
-1.730669e-01 -4.136890e-01 -1.865283e+00 111 40 0
-1.862908e-01 -3.201848e-01 -1.843069e+00 112 46 0
-1.775228e-01 -2.589952e-01 -1.807917e+00 168 85 47
2.201314e-01 -2.911711e-01 -1.891362e+00 28 19 2
-3.618514e-01 -2.515270e-01 -1.909498e+00 152 108 35
-2.133607e-01 -2.151924e-01 -1.806324e+00 151 105 31
-2.126459e-01 -2.157396e-01 -1.807734e+00 151 105 31
-2.276239e-01 -2.133834e-01 -1.814103e+00 95 45 3
-2.229533e-01 -2.122935e-01 -1.812540e+00 150 102 31
-1.690113e-01 -1.808570e-01 -1.791026e+00 135 40 2
-2.882346e-01 -1.511397e-01 -1.799567e+00 159 109 41
-3.816735e-01 -1.317909e-01 -1.856036e+00 105 60 2
-3.965567e-01 -1.305437e-01 -1.873384e+00 152 110 38
-7.204702e-02 -8.600690e-02 -1.751332e+00 139 80 24
-4.133847e-01 -7.643406e-02 -1.857321e+00 178 96 58
1.753833e-01 -6.381065e-01 -1.643312e+00 51 44 22
1.975423e-01 -5.589712e-01 -1.571824e+00 85 86 72
6.726741e-01 -5.431047e-01 -1.478540e+00 42 37 18
6.776136e-01 -5.370147e-01 -1.478656e+00 54 48 16
1.322994e-01 -4.868311e-01 -1.646624e+00 144 170 124
1.461593e-01 -4.677519e-01 -1.657885e+00 210 226 161
1.761787e-01 -4.649035e-01 -1.643395e+00 170 198 143
1.313979e-01 -4.688266e-01 -1.661366e+00 27 104 19
2.019217e-01 -4.632033e-01 -1.643961e+00 21 65 6
1.764728e-01 -4.570404e-01 -1.648437e+00 171 193 134
3.508196e-01 -4.489022e-01 -1.602060e+00 64 62 50
2.170343e-01 -4.419528e-01 -1.640489e+00 45 84 26
2.205960e-01 -4.369558e-01 -1.636689e+00 51 65 10
2.381913e-01 -4.366790e-01 -1.637628e+00 54 72 12
2.374020e-01 -4.301065e-01 -1.637944e+00 143 104 55
3.273102e-01 -4.005211e-01 -1.628167e+00 124 101 69
3.687492e-01 -3.870738e-01 -1.657205e+00 21 17 6
-5.422551e-02 -3.807198e-01 -1.858266e+00 122 36 18
1.163264e-01 -3.639848e-01 -1.894290e+00 94 19 11
-1.582666e-01 -3.093887e-01 -1.824607e+00 167 69 42
-1.543768e-01 -3.100416e-01 -1.834895e+00 167 69 42
