ply
format ascii 1.0
element face 0
property list uchar int vertex_indices
element vertex 940
property float x
property float y
property float z
property uchar diffuse_red
property uchar diffuse_green
property uchar diffuse_blue
end_header
-2.276459e-01 -1.065939e-01 -2.031307e+00 67 16 2
-2.278638e-01 -1.073597e-01 -2.032260e+00 67 16 2
3.993246e-02 -9.305887e-02 -2.025019e+00 70 8 0
3.984255e-02 -9.272165e-02 -2.024384e+00 70 8 0
-1.078251e-01 -9.100190e-02 -2.026668e+00 133 77 18
-1.667827e-01 -6.974934e-02 -2.029607e+00 146 76 32
-1.310516e-01 -6.165970e-02 -2.028952e+00 119 37 7
-4.419793e-01 -6.585939e-02 -2.085149e+00 111 51 10
-2.558680e-01 -6.099870e-02 -2.030476e+00 124 33 3
-5.016957e-02 -5.766031e-02 -2.021304e+00 78 32 16
-6.477596e-02 -5.244247e-02 -2.024664e+00 58 17 0
-3.501303e-01 -5.408846e-02 -2.066299e+00 154 106 49
-1.315940e-01 -4.846193e-02 -2.030446e+00 120 34 4
-1.140177e-01 -3.118518e-02 -2.031184e+00 70 15 2
-3.651676e-01 -1.063062e-02 -2.073992e+00 154 76 43
9.462115e-02 8.649768e-03 -2.029766e+00 94 44 0
9.298707e-02 8.254680e-03 -2.023245e+00 94 44 0
8.541864e-02 1.951667e-02 -2.023531e+00 157 105 47
-2.958533e-01 1.112053e-01 -2.087266e+00 57 56 62
-3.729961e-02 2.806340e-01 -2.095690e+00 106 92 90
-3.162304e-03 3.022116e-01 -2.121032e+00 109 94 92
-3.272320e-03 3.005729e-01 -2.115419e+00 109 94 92
-2.962720e-01 3.230943e-01 -2.180479e+00 96 83 92
-3.232398e-01 3.303588e-01 -2.192747e+00 48 37 43
-1.864062e-02 3.183389e-01 -2.131279e+00 56 41 46
-1.864062e-02 3.183389e-01 -2.131279e+00 56 41 46
-3.493349e-01 3.378769e-01 -2.188376e+00 78 72 87
-3.493349e-01 3.378769e-01 -2.188376e+00 78 72 87
-4.798184e-01 3.483184e-01 -2.211757e+00 47 33 33
-4.743078e-01 3.422397e-01 -2.195102e+00 47 33 33
-2.886943e-02 3.782679e-01 -2.135745e+00 34 26 39
1.812036e+00 5.667931e-01 -2.295305e+00 126 114 93
4.220610e-01 -8.858887e-01 -1.778995e+00 47 41 17
4.421419e-01 -9.064120e-01 -1.803677e+00 81 75 58
-4.571324e-01 -8.750300e-01 -1.908074e+00 71 85 47
-4.484027e-01 -8.457221e-01 -1.881492e+00 166 175 132
-4.566492e-01 -8.389234e-01 -1.874605e+00 101 97 56
-4.732489e-01 -8.569887e-01 -1.903886e+00 89 90 41
-4.769712e-01 -8.555723e-01 -1.909874e+00 151 165 98
-3.950196e-01 -8.477784e-01 -1.906112e+00 65 80 42
-4.176967e-01 -8.450980e-01 -1.905296e+00 46 97 46
-4.331747e-01 -8.429257e-01 -1.910589e+00 41 95 46
-3.522363e-01 -8.301001e-01 -1.895612e+00 103 107 56
-3.321574e-01 -8.341119e-01 -1.907481e+00 118 117 66
-4.588356e-01 -8.245793e-01 -1.917885e+00 38 73 15
-4.209584e-01 -7.935523e-01 -1.885184e+00 47 93 2
4.367044e-01 -7.216152e-01 -1.774649e+00 33 28 8
-3.811937e-01 -7.972311e-01 -1.905952e+00 176 195 146
-3.769729e-01 -7.776039e-01 -1.884072e+00 75 109 61
-2.898947e-01 -7.885926e-01 -1.900951e+00 45 83 43
-2.731909e-01 -7.905225e-01 -1.905261e+00 158 171 126
3.357567e-01 -7.852702e-01 -1.870620e+00 25 17 2
-8.638937e-02 -1.336532e-01 -1.165386e+00 25 67 0
-3.002888e-01 -7.597289e-01 -1.884324e+00 176 195 153
-2.718736e-01 -7.767844e-01 -1.901660e+00 19 64 0
-3.247722e-01 -7.736667e-01 -1.907744e+00 57 93 48
-3.482681e-01 -7.619920e-01 -1.912265e+00 195 208 178
-2.260681e-01 -7.535271e-01 -1.901757e+00 43 64 14
3.131334e-01 -7.498951e-01 -1.873615e+00 36 27 10
-1.933820e-01 -7.103912e-01 -1.904074e+00 187 206 137
-1.933820e-01 -7.103912e-01 -1.904074e+00 187 206 137
5.596462e-01 -6.151225e-01 -1.760078e+00 54 52 41
-1.093054e-01 -6.952655e-01 -1.897071e+00 57 68 30
-9.328971e-02 -6.921354e-01 -1.897323e+00 11 51 0
-1.122594e-01 -6.914136e-01 -1.898407e+00 180 191 133
-4.298936e-02 -6.779541e-01 -1.894446e+00 45 84 37
3.779265e-01 -6.367814e-01 -1.824990e+00 69 69 59
2.662442e-01 -6.868462e-01 -1.908041e+00 35 28 10
-1.081155e-01 -6.651343e-01 -1.897304e+00 24 106 14
-1.073067e-01 -6.554238e-01 -1.910497e+00 75 93 55
-1.115333e-01 -6.523725e-01 -1.910107e+00 189 182 146
9.201082e-01 -5.967497e-01 -1.789247e+00 45 38 22
1.353521e-02 -6.401193e-01 -1.894168e+00 50 66 23
-9.693046e-02 -6.469446e-01 -1.909234e+00 180 175 134
-5.984187e-04 -6.395761e-01 -1.896156e+00 43 76 30
-7.208186e-02 -1.218291e-01 -1.158659e+00 149 172 115
3.404487e-02 -6.206129e-01 -1.896179e+00 115 189 112
6.477534e-03 -6.174921e-01 -1.894153e+00 49 134 45
6.043565e-02 -6.134502e-01 -1.896138e+00 46 79 24
2.276675e-01 -6.431122e-01 -1.939445e+00 94 83 59
4.649742e-02 -6.075729e-01 -1.897576e+00 41 81 30
7.809192e-02 -6.012048e-01 -1.891208e+00 25 73 1
1.759537e-01 -6.099464e-01 -1.903900e+00 99 93 53
1.466610e-02 -5.981732e-01 -1.904236e+00 74 90 48
1.645385e-01 -5.942661e-01 -1.891856e+00 128 141 103
5.910902e-02 -5.949394e-01 -1.898262e+00 28 91 5
3.739577e-01 -5.694908e-01 -1.856502e+00 44 43 38
1.578255e-01 -5.815459e-01 -1.888062e+00 21 65 0
6.773071e-02 -5.757981e-01 -1.906363e+00 54 82 41
1.474168e-01 -5.636588e-01 -1.892239e+00 125 199 121
4.149259e-01 -5.425615e-01 -1.853503e+00 76 74 61
7.874752e-01 -5.069532e-01 -1.781133e+00 52 49 42
1.499067e-01 -5.395286e-01 -1.879138e+00 34 92 8
2.650308e-01 -5.411257e-01 -1.887461e+00 31 49 25
1.320249e-01 -5.438709e-01 -1.902508e+00 154 165 117
2.267460e-01 -5.134755e-01 -1.878790e+00 204 214 162
2.302569e-01 -5.095495e-01 -1.886057e+00 32 75 2
2.999064e-01 -5.031612e-01 -1.876670e+00 50 95 40
3.602014e-01 -5.091318e-01 -1.885759e+00 42 54 39
2.427572e-01 -5.059378e-01 -1.886870e+00 94 171 88
2.438044e-01 -5.072965e-01 -1.889014e+00 94 171 88
2.436510e-01 -5.071210e-01 -1.888658e+00 94 171 88
2.674503e-01 -4.999939e-01 -1.887109e+00 156 180 111
4.854557e-01 -4.876276e-01 -1.856140e+00 69 66 59
2.893986e-01 -4.952595e-01 -1.884489e+00 171 191 140
3.804754e-01 -4.960475e-01 -1.888177e+00 21 27 10
2.899942e-01 -4.875157e-01 -1.883338e+00 192 209 142
2.912588e-01 -4.890285e-01 -1.885607e+00 192 209 142
3.862195e-01 -4.874511e-01 -1.880354e+00 83 74 60
2.849278e-01 -4.866300e-01 -1.883005e+00 84 100 29
3.020836e-01 -4.871312e-01 -1.884752e+00 35 80 11
-2.787809e-01 -5.347606e-01 -2.002289e+00 158 104 61
2.805153e-01 -4.871065e-01 -1.889079e+00 183 209 134
2.475605e-01 -4.853824e-01 -1.891606e+00 186 202 149
3.687901e-01 -4.823448e-01 -1.881595e+00 33 64 15
3.687901e-01 -4.823448e-01 -1.881595e+00 33 64 15
2.810904e-01 -4.846121e-01 -1.893868e+00 9 52 0
-5.780579e-02 -5.171452e-01 -1.994374e+00 77 3 0
-2.422244e-01 -5.226180e-01 -2.015776e+00 149 90 40
-2.516460e-01 -5.229553e-01 -2.018466e+00 141 75 33
-2.398960e-02 -5.141337e-01 -1.999027e+00 125 49 38
3.658960e-01 -4.620397e-01 -1.878591e+00 49 67 10
-2.934819e-01 -5.153880e-01 -2.018927e+00 150 79 27
3.390299e-01 -4.599729e-01 -1.888030e+00 183 212 138
6.658856e-03 -5.140757e-01 -2.017346e+00 74 1 1
5.566739e-01 -4.470843e-01 -1.857343e+00 62 59 50
3.562451e-01 -4.591038e-01 -1.890742e+00 47 77 14
-2.204420e-01 -5.013586e-01 -2.028581e+00 133 70 30
-2.122772e-01 -4.937370e-01 -2.012882e+00 74 9 1
6.470046e-01 -4.435353e-01 -1.874187e+00 82 79 70
6.472666e-01 -4.438171e-01 -1.874900e+00 82 79 70
1.350054e-01 -5.083862e-01 -2.043295e+00 104 71 39
3.214616e-02 -4.833788e-01 -1.996395e+00 79 1 0
-3.304426e-01 -4.911343e-01 -2.033966e+00 86 27 0
7.516803e-01 -4.376204e-01 -1.879191e+00 73 69 33
5.845858e-01 -4.231408e-01 -1.852978e+00 69 66 57
-2.331388e-01 -4.820563e-01 -2.014768e+00 76 15 1
-4.636723e-01 -5.262242e-01 -2.125434e+00 106 55 14
-2.527937e-01 -4.805386e-01 -2.017371e+00 92 22 1
-2.534115e-01 -4.821210e-01 -2.020756e+00 92 22 1
5.505390e-03 -4.675456e-01 -2.008489e+00 76 2 3
-1.994827e-01 -4.585108e-01 -1.996157e+00 94 30 1
-2.391158e-01 -4.679685e-01 -2.020223e+00 142 86 39
2.828378e-04 -4.655876e-01 -2.009528e+00 115 32 19
2.828378e-04 -4.655876e-01 -2.009528e+00 115 32 19
6.272930e-01 -4.162408e-01 -1.877611e+00 69 66 57
-2.187487e-01 -4.559276e-01 -2.013001e+00 127 67 34
-2.184478e-01 -4.539969e-01 -2.008751e+00 127 67 34
4.737220e-01 -4.142133e-01 -1.900238e+00 75 72 54
-2.320616e-01 -4.505430e-01 -2.012373e+00 77 19 3
-2.426827e-01 -4.460270e-01 -2.017438e+00 87 19 0
-2.171183e-01 -4.421784e-01 -2.010354e+00 128 58 22
-2.378424e-01 -4.326994e-01 -2.017025e+00 76 13 1
-2.504727e-01 -4.317591e-01 -2.017666e+00 90 21 0
-2.434959e-01 -4.247670e-01 -2.009145e+00 142 83 39
-1.841467e-01 -4.125690e-01 -2.002983e+00 71 5 3
-2.386570e-01 -4.133863e-01 -2.015993e+00 87 23 2
-2.382801e-01 -4.126712e-01 -2.014473e+00 87 23 2
-2.573366e-01 -4.132584e-01 -2.024820e+00 141 70 29
5.663715e-01 -3.717917e-01 -1.888786e+00 92 87 81
-3.981887e-01 -4.266504e-01 -2.068580e+00 139 88 34
-2.393675e-01 -4.072709e-01 -2.018219e+00 83 17 1
-2.394376e-01 -4.073922e-01 -2.018256e+00 83 17 1
-3.496554e-02 -3.918296e-01 -1.994533e+00 117 46 31
-2.101894e-01 -3.938584e-01 -2.007817e+00 142 86 48
-2.395563e-01 -3.949972e-01 -2.018744e+00 77 16 0
-2.465382e-01 -3.915179e-01 -2.020845e+00 143 85 40
-2.462354e-01 -3.911944e-01 -2.020218e+00 143 85 40
-6.921239e-02 -3.847358e-01 -2.003810e+00 78 4 2
-2.418770e-01 -3.886033e-01 -2.020943e+00 84 19 1
-3.991098e-01 -3.868264e-01 -2.052505e+00 102 46 0
-2.530533e-01 -3.757476e-01 -2.021040e+00 88 24 0
-1.943202e-01 -3.685352e-01 -2.007617e+00 80 18 6
-5.356117e-03 -3.647832e-01 -1.998875e+00 55 1 1
-1.626378e-01 -3.654252e-01 -2.004518e+00 126 75 22
1.448419e-02 -3.646433e-01 -2.012424e+00 128 47 37
1.457338e-02 -3.654331e-01 -2.012262e+00 128 47 37
-5.721749e-02 -3.641222e-01 -2.008220e+00 125 49 38
-4.444188e-02 -3.605867e-01 -2.003603e+00 125 46 34
-4.448850e-02 -3.596393e-01 -2.002101e+00 125 46 34
-1.379400e-01 -3.588267e-01 -2.001151e+00 123 39 13
1.387511e-01 -3.707750e-01 -2.031485e+00 25 9 1
-1.858375e-01 -3.568442e-01 -2.006522e+00 75 14 2
-3.249952e-02 -3.550431e-01 -2.003016e+00 63 4 2
-2.377383e-01 -3.549530e-01 -2.023943e+00 142 89 53
-2.628016e-01 -3.481461e-01 -2.026486e+00 93 35 4
-2.549383e-01 -3.382889e-01 -2.026177e+00 82 17 0
-2.551632e-01 -3.384787e-01 -2.027328e+00 82 17 0
-1.955254e-01 -3.346222e-01 -2.017843e+00 60 0 0
-2.279906e-01 -3.334798e-01 -2.020250e+00 86 34 1
-1.208443e-01 -3.258633e-01 -2.001496e+00 130 34 12
-2.417233e-01 -3.303403e-01 -2.019170e+00 87 27 4
-2.568530e-01 -3.311111e-01 -2.027544e+00 82 18 0
-2.181828e-01 -3.234406e-01 -2.018974e+00 64 8 0
-2.238723e-01 -3.234642e-01 -2.018498e+00 132 81 42
-2.236439e-01 -3.226425e-01 -2.015527e+00 132 81 42
-2.294179e-01 -3.228001e-01 -2.021490e+00 69 14 0
-1.970138e-01 -3.219219e-01 -2.018426e+00 73 10 0
-4.024909e-01 -3.320727e-01 -2.061367e+00 109 52 7
-1.016239e-01 -3.218185e-01 -2.034545e+00 104 20 1
-2.177232e-01 -3.152354e-01 -2.019329e+00 91 35 3
-1.211543e-01 -3.202364e-01 -2.045268e+00 107 29 3
-2.389199e-01 -3.115111e-01 -2.022339e+00 90 37 3
-2.389153e-01 -3.115766e-01 -2.022534e+00 90 37 3
-4.074642e-01 -3.238395e-01 -2.074955e+00 120 61 5
-1.316651e-01 -3.159599e-01 -2.044365e+00 111 28 2
-1.319217e-01 -3.156360e-01 -2.043825e+00 111 28 2
5.590353e-02 -3.203563e-01 -2.070859e+00 78 0 0
4.823013e-02 -3.092585e-01 -2.023727e+00 78 0 0
4.086644e-02 -3.029125e-01 -2.008009e+00 115 34 27
2.243518e-02 -3.007620e-01 -2.012267e+00 54 1 1
-4.611796e-02 -2.971402e-01 -1.997299e+00 60 2 1
-5.389643e-02 -2.940986e-01 -2.005878e+00 63 3 3
6.446532e-01 -2.971103e-01 -2.039338e+00 80 67 38
-4.065568e-01 -2.959319e-01 -2.068627e+00 110 52 4
-3.148294e-01 -2.833604e-01 -2.038628e+00 81 34 5
-3.335805e-01 -2.821286e-01 -2.045943e+00 149 92 40
-4.060355e-01 -2.806096e-01 -2.068171e+00 93 33 0
-4.102523e-01 -2.840837e-01 -2.080431e+00 93 33 0
-2.291272e-02 -2.625962e-01 -2.004962e+00 101 14 1
-1.908329e-01 -2.658114e-01 -2.021385e+00 72 17 3
-3.723660e-01 -2.715347e-01 -2.058982e+00 87 44 8
-9.717358e-02 -2.563102e-01 -2.007755e+00 115 24 0
-4.404573e-01 -2.663764e-01 -2.095718e+00 118 48 10
-2.082909e-01 -2.434602e-01 -2.023299e+00 129 74 18
-4.479777e-01 -2.550805e-01 -2.092433e+00 124 76 31
-3.838837e-01 -2.308996e-01 -2.065785e+00 142 98 35
-4.373992e-01 -2.323125e-01 -2.089378e+00 107 39 2
-3.255733e-01 -2.129561e-01 -2.050461e+00 78 37 2
-1.907444e-01 -2.073768e-01 -2.021426e+00 88 27 0
3.007815e-02 -2.024792e-01 -2.015544e+00 106 16 0
-2.090964e-01 -2.021058e-01 -2.025327e+00 133 79 31
-3.345021e-01 -2.065326e-01 -2.054514e+00 136 90 35
-3.577459e-01 -2.051015e-01 -2.054022e+00 74 30 0
-2.994983e-01 -2.020646e-01 -2.041680e+00 99 40 1
-3.117116e-01 -2.006085e-01 -2.050202e+00 113 55 3
-3.053635e-01 -1.959942e-01 -2.039952e+00 148 93 30
-1.874692e-01 -1.877265e-01 -2.030819e+00 148 102 54
-1.871171e-01 -1.877199e-01 -2.027981e+00 148 102 54
-2.054442e-01 -1.869068e-01 -2.028412e+00 64 16 1
-3.298984e-01 -1.820420e-01 -2.056426e+00 139 92 39
-7.699011e-02 -1.721083e-01 -2.009308e+00 124 66 23
-8.934669e-02 -1.711184e-01 -2.020786e+00 83 25 2
-3.703157e-01 -1.777442e-01 -2.060583e+00 108 55 6
-3.713014e-01 -1.782210e-01 -2.064550e+00 108 55 6
-8.437805e-02 -1.694129e-01 -2.015612e+00 142 90 40
-7.724027e-02 -1.635082e-01 -2.016976e+00 64 13 1
-3.248418e-01 -1.685054e-01 -2.051431e+00 138 91 34
-3.496162e-01 -1.688719e-01 -2.059595e+00 78 35 1
-8.953226e-02 -1.537507e-01 -2.013871e+00 84 28 6
-2.953313e-02 -1.393991e-01 -2.009403e+00 63 19 2
6.505566e-02 -1.372518e-01 -2.029277e+00 49 2 1
-1.641302e-01 -1.401819e-01 -2.026329e+00 169 114 70
-3.116465e-01 -1.378508e-01 -2.053974e+00 97 50 1
-3.857067e-01 -1.405096e-01 -2.072715e+00 142 91 35
-3.856219e-01 -1.403706e-01 -2.072205e+00 142 91 35
-1.465473e-04 -1.313279e-01 -2.008533e+00 71 21 7
-1.465473e-04 -1.313279e-01 -2.008533e+00 71 21 7
-1.936603e-01 -1.297820e-01 -2.029157e+00 81 21 2
-2.080594e-01 -1.299910e-01 -2.032712e+00 76 11 3
-2.077937e-01 -1.297690e-01 -2.031350e+00 76 11 3
-3.738646e-01 -1.311950e-01 -2.072384e+00 96 48 1
-1.881564e-01 -1.269697e-01 -2.032346e+00 147 94 47
-2.058119e-01 -1.220372e-01 -2.027195e+00 79 18 0
-1.643486e-01 -1.191913e-01 -2.028385e+00 163 105 52
-2.188709e-01 -1.083417e-01 -2.037856e+00 77 26 2
-2.691242e-01 -1.046783e-01 -2.048489e+00 151 100 52
1.171022e-02 -9.972030e-02 -2.009631e+00 67 16 6
-1.119838e-01 -1.022156e-01 -2.020372e+00 64 5 1
-3.887981e-01 -1.055865e-01 -2.073268e+00 81 36 0
-2.216512e-01 -1.014153e-01 -2.040791e+00 77 21 1
-2.867779e-01 -1.008546e-01 -2.048150e+00 145 97 48
-2.539981e-01 -1.002009e-01 -2.032442e+00 88 35 3
-3.351506e-01 -1.008455e-01 -2.061727e+00 75 28 0
-2.952141e-01 -9.981385e-02 -2.053550e+00 149 97 53
-2.952848e-01 -9.980190e-02 -2.053896e+00 149 97 53
-4.684364e-01 -1.015573e-01 -2.125857e+00 135 102 55
-3.709382e-01 -9.253013e-02 -2.072911e+00 107 60 3
-1.630366e-01 -8.638777e-02 -2.029624e+00 161 88 46
-2.050014e-01 -8.497743e-02 -2.035421e+00 71 20 0
2.142920e-02 -7.884413e-02 -2.018779e+00 68 7 0
-1.895068e-01 -8.072888e-02 -2.035389e+00 145 92 52
-3.786930e-01 -8.124822e-02 -2.085496e+00 96 49 0
-2.055355e-01 -7.546889e-02 -2.037949e+00 75 27 1
2.202250e-02 -4.331964e-02 -2.024637e+00 63 14 0
-1.094448e-01 -4.125349e-02 -2.024008e+00 120 71 30
1.712104e-02 -3.555096e-02 -2.026286e+00 132 82 40
1.713201e-02 -3.530472e-02 -2.026148e+00 132 82 40
-3.854098e-01 -3.101624e-02 -2.073678e+00 159 80 50
7.398302e-02 -2.001819e-02 -2.031352e+00 79 40 3
-4.537712e-01 -1.417603e-02 -2.118059e+00 108 47 6
-8.051980e-02 6.783874e-02 -2.069650e+00 177 98 58
-1.180228e-01 9.846514e-02 -2.054803e+00 31 26 32
-9.559047e-02 1.052250e-01 -2.050073e+00 11 7 12
-4.877822e-01 1.692641e-01 -2.189620e+00 116 88 38
-1.121133e-01 2.946951e-01 -2.127028e+00 105 93 102
-2.861602e-01 3.128807e-01 -2.153728e+00 48 36 48
1.372299e-01 3.058017e-01 -2.096465e+00 126 115 96
-1.475141e-01 3.307764e-01 -2.171478e+00 94 80 83
1.290234e-01 3.139803e-01 -2.087723e+00 106 90 83
1.358415e-01 3.294781e-01 -2.108055e+00 109 92 78
1.281159e-01 3.320934e-01 -2.090775e+00 98 82 58
-4.671937e-01 3.917886e-01 -2.246305e+00 51 38 22
-6.730987e-02 4.343876e-01 -2.231196e+00 61 47 37
7.293817e-02 -1.780196e-01 -2.055907e+00 106 15 0
-3.803004e-01 -1.820226e-01 -2.051487e+00 103 47 1
2.127958e+00 7.511684e-01 -2.608011e+00 71 57 38
1.290333e-02 -6.566198e-01 -1.892486e+00 42 83 28
-5.400724e-02 -7.091443e-01 -1.898269e+00 177 154 110
-9.886659e-02 -6.933543e-01 -1.892785e+00 177 196 137
2.051243e-01 -5.587316e-01 -1.889012e+00 150 174 114
-5.224977e-02 -2.010860e-01 -2.034774e+00 133 22 7
-4.627787e-01 -7.923242e-01 -1.878105e+00 25 76 17
1.499265e-01 -5.312721e-01 -1.884822e+00 18 71 8
-2.108455e-01 -1.843399e-01 -2.029671e+00 102 55 26
-2.359626e-01 -7.338431e-01 -1.885891e+00 133 142 97
6.256853e-01 -6.021638e-01 -1.782522e+00 72 70 55
4.581244e-02 -1.258604e-01 -2.036736e+00 54 13 0
4.095234e-01 -8.694768e-01 -1.796076e+00 23 19 4
-2.234950e-01 -4.035050e-01 -2.016031e+00 130 72 22
-2.233757e-01 -4.032498e-01 -2.015550e+00 130 72 22
-4.045900e-02 -3.779796e-01 -2.000285e+00 59 16 11
-2.258751e-01 -3.473964e-01 -2.023145e+00 141 81 27
-2.258751e-01 -3.473964e-01 -2.023145e+00 141 81 27
4.811051e-02 -3.350178e-01 -2.006545e+00 60 1 0
-2.363835e-01 -3.279545e-01 -2.024108e+00 141 83 26
-2.418205e-01 -3.164081e-01 -2.025074e+00 94 49 15
1.110638e-02 -2.856168e-01 -2.021010e+00 58 3 1
8.340777e-02 -2.558830e-01 -2.019802e+00 52 1 3
8.272868e-02 -2.562528e-01 -2.018869e+00 52 1 3
-3.825446e-01 -2.381722e-01 -2.063564e+00 89 36 4
-3.351437e-01 -2.335726e-01 -2.058752e+00 81 31 2
-3.727094e-01 -2.245821e-01 -2.070521e+00 90 42 6
-3.877274e-01 -2.180241e-01 -2.067932e+00 100 48 7
-4.026468e-01 -1.754863e-01 -2.084431e+00 114 63 9
-4.030913e-01 -1.739637e-01 -2.083285e+00 114 63 9
-1.122329e-01 -1.461602e-01 -2.016060e+00 104 44 8
6.935997e-02 -1.352490e-01 -2.039066e+00 96 47 34
-3.975157e-01 -1.270269e-01 -2.080666e+00 142 95 25
-2.129219e-01 -1.132682e-01 -2.031233e+00 138 87 21
-2.129219e-01 -1.132682e-01 -2.031233e+00 138 87 21
-8.551640e-02 -1.091050e-01 -2.019395e+00 132 73 16
-1.998371e-01 -7.087646e-02 -2.017545e+00 145 95 27
-2.010965e-01 -6.891648e-02 -2.022220e+00 145 95 27
-2.075190e-01 -7.209497e-02 -2.018468e+00 152 100 40
-2.968031e-01 -4.724092e-02 -2.051585e+00 165 94 61
-2.928480e-01 -4.754435e-02 -2.031992e+00 165 94 61
-4.152274e-01 -4.459901e-02 -2.083196e+00 93 47 0
3.507614e-01 -7.952710e-01 -1.836944e+00 30 23 5
-3.399402e-01 -4.925709e-01 -2.041688e+00 90 32 3
-3.399402e-01 -4.925709e-01 -2.041688e+00 90 32 3
-3.606140e-01 -4.878730e-01 -2.065769e+00 132 76 18
-3.553484e-01 -4.796365e-01 -2.047129e+00 132 76 18
-2.428208e-01 -4.572786e-01 -2.002815e+00 88 23 0
7.948863e-01 -4.466957e-01 -1.941923e+00 195 181 138
-3.483826e-01 -4.692002e-01 -2.041589e+00 84 29 1
-3.483826e-01 -4.692002e-01 -2.041589e+00 84 29 1
4.601704e-02 -4.588138e-01 -2.015815e+00 68 0 2
-2.286056e-01 -4.322089e-01 -2.022563e+00 69 13 1
-3.995559e-01 -4.198670e-01 -2.071849e+00 98 46 1
-3.969020e-01 -3.972203e-01 -2.076034e+00 145 88 31
-3.962161e-01 -3.960120e-01 -2.073679e+00 145 88 31
3.515120e-02 -3.730280e-01 -2.001372e+00 58 4 9
3.420094e-02 -3.695581e-01 -1.992168e+00 58 4 9
4.609988e-02 -3.725389e-01 -2.008014e+00 54 0 4
4.609988e-02 -3.725389e-01 -2.008014e+00 54 0 4
-1.427054e-01 -3.527120e-01 -2.010936e+00 124 24 1
-1.427054e-01 -3.527120e-01 -2.010936e+00 124 24 1
-4.155546e-01 -3.468767e-01 -2.101867e+00 112 55 2
-3.432111e-01 -2.219168e-01 -2.061530e+00 145 96 37
-3.834721e-01 -8.332187e-02 -2.073922e+00 88 46 4
-3.834721e-01 -8.332187e-02 -2.073922e+00 88 46 4
-1.829399e-01 -7.940005e-02 -2.037870e+00 61 9 4
-4.166053e-01 -6.992572e-02 -2.088317e+00 104 63 11
-7.444601e-02 -1.998094e-02 -2.035385e+00 153 112 51
1.387813e-01 2.962259e-01 -2.087001e+00 31 14 10
4.331720e-01 -8.159453e-01 -1.778724e+00 45 45 37
4.599516e-01 -7.291638e-01 -1.773697e+00 83 80 73
4.380624e-01 -7.231987e-01 -1.776659e+00 32 25 6
-2.600831e-01 -7.950032e-01 -1.906366e+00 48 56 9
4.585425e-01 -6.509123e-01 -1.793356e+00 60 59 47
4.585425e-01 -6.509123e-01 -1.793356e+00 60 59 47
1.480763e-01 -6.103200e-01 -1.896511e+00 37 53 8
5.595110e-02 -6.040683e-01 -1.896811e+00 22 34 0
2.363247e-01 -5.213524e-01 -1.889699e+00 31 39 0
-1.547170e-01 -5.467688e-01 -1.999820e+00 153 75 36
2.958426e-01 -4.945194e-01 -1.887193e+00 26 40 2
-1.697905e-01 -5.247652e-01 -2.012528e+00 101 33 0
-3.265908e-02 -5.106491e-01 -2.003237e+00 120 37 22
-2.343396e-01 -4.723714e-01 -2.025948e+00 70 7 3
-2.453289e-01 -4.626613e-01 -2.015989e+00 88 22 0
-2.454072e-01 -4.628059e-01 -2.016774e+00 88 22 0
-1.991656e-01 -4.135975e-01 -2.016059e+00 134 77 33
-1.854180e-01 -3.955569e-01 -2.008857e+00 73 9 1
-1.741770e-01 -3.908324e-01 -2.013668e+00 97 31 1
-2.535945e-01 -3.875576e-01 -2.022133e+00 86 20 1
-1.851794e-01 -3.474476e-01 -2.016581e+00 137 79 23
-1.791855e-02 -3.300743e-01 -2.007468e+00 71 8 8
-1.909931e-01 -3.253340e-01 -2.008626e+00 135 74 19
-4.460593e-02 -3.214985e-01 -2.012752e+00 61 0 0
-3.350658e-01 -2.843528e-01 -2.051932e+00 148 91 43
-1.912499e-01 -2.595337e-01 -2.019813e+00 74 18 7
-1.916792e-01 -2.257964e-01 -2.024642e+00 64 13 6
-2.576571e-01 -2.261344e-01 -2.035222e+00 80 38 5
5.359764e-02 -1.966491e-01 -2.071961e+00 144 56 36
4.385056e-02 -1.882388e-01 -2.021094e+00 144 56 36
-2.769990e-02 -1.814364e-01 -2.016502e+00 151 106 68
-5.005130e-02 -1.639382e-01 -2.016791e+00 72 3 0
-1.636129e-01 -1.486034e-01 -2.021148e+00 170 119 73
-1.647127e-01 -1.312390e-01 -2.030062e+00 170 112 75
-1.647398e-01 -1.314665e-01 -2.030474e+00 170 112 75
-8.790827e-02 -1.254503e-01 -2.019920e+00 59 3 0
-2.139210e-01 -1.064207e-01 -2.037996e+00 144 98 49
1.238540e-01 -6.895822e-02 -2.036470e+00 126 59 24
1.238540e-01 -6.895822e-02 -2.036470e+00 126 59 24
-3.226273e-01 -5.896156e-02 -2.057281e+00 152 101 46
-1.147503e-01 -4.042343e-02 -2.021409e+00 61 6 0
-4.791227e-01 5.254614e-03 -2.147172e+00 126 92 47
-9.657549e-02 2.260226e-01 -2.056940e+00 41 41 51
-1.879700e-01 2.999357e-01 -2.137011e+00 48 37 49
-2.993273e-01 4.299857e-01 -2.245681e+00 35 28 16
2.320557e+00 8.470899e-01 -2.795106e+00 94 84 56
4.390714e-01 -9.006386e-01 -1.785084e+00 35 29 8
-4.280199e-01 -8.597289e-01 -1.903512e+00 39 77 22
-4.467420e-01 -8.030792e-01 -1.886741e+00 50 109 42
-4.704311e-01 -8.230740e-01 -1.921274e+00 26 55 17
-3.670794e-01 -8.121594e-01 -1.905705e+00 48 100 55
-2.952748e-01 -8.066578e-01 -1.902721e+00 48 63 3
4.537591e-01 -7.130442e-01 -1.779368e+00 76 71 53
-3.842174e-01 -7.927929e-01 -1.909883e+00 85 105 34
-4.181648e-01 -7.976953e-01 -1.921179e+00 73 95 63
3.205912e-01 -7.678140e-01 -1.855919e+00 89 80 56
-3.005581e-01 -7.637575e-01 -1.882693e+00 44 95 48
-3.247466e-01 -7.745042e-01 -1.909173e+00 61 95 50
4.817232e-01 -6.588037e-01 -1.784352e+00 58 58 50
4.606657e-01 -6.499507e-01 -1.787011e+00 51 47 36
-2.157458e-01 -7.047090e-01 -1.913999e+00 57 78 33
5.940366e-02 -6.579588e-01 -1.901636e+00 166 154 94
2.615971e-01 -6.419195e-01 -1.910107e+00 23 17 6
1.038301e-01 -6.208302e-01 -1.892025e+00 143 153 112
2.333294e-01 -6.534735e-01 -1.943942e+00 95 83 57
1.027549e-01 -5.718398e-01 -1.900133e+00 185 209 135
1.470230e-01 -5.629454e-01 -1.891037e+00 127 200 122
1.729831e-01 -5.533786e-01 -1.894920e+00 188 209 161
2.664464e-01 -5.281408e-01 -1.885839e+00 150 173 116
2.401833e-01 -5.115527e-01 -1.889370e+00 34 92 13
3.564206e-01 -5.061846e-01 -1.880198e+00 47 55 40
2.760586e-01 -5.042546e-01 -1.882634e+00 14 75 10
3.725255e-01 -4.860103e-01 -1.880809e+00 129 142 103
-2.067108e-01 -5.324780e-01 -2.020104e+00 150 82 45
-1.889117e-01 -5.203191e-01 -2.004931e+00 83 19 6
3.217315e-01 -4.568804e-01 -1.900083e+00 26 27 0
1.394944e-01 -5.245687e-01 -2.053659e+00 154 132 90
-3.901668e-01 -5.155923e-01 -2.052542e+00 158 86 38
-2.117608e-01 -4.915905e-01 -2.007612e+00 76 8 0
-1.889409e-01 -4.867802e-01 -2.002257e+00 77 12 7
-3.433531e-01 -5.019792e-01 -2.037974e+00 94 41 1
-3.737114e-01 -5.011323e-01 -2.047581e+00 89 29 0
3.582697e-01 -4.353755e-01 -1.889433e+00 28 22 2
-2.459641e-01 -4.856040e-01 -2.021568e+00 88 24 6
-2.094962e-01 -4.783620e-01 -2.009171e+00 136 72 24
1.336847e-01 -4.932908e-01 -2.041705e+00 80 53 43
-2.349693e-01 -4.769608e-01 -2.015996e+00 134 74 26
-2.450640e-01 -4.706604e-01 -2.016768e+00 85 20 0
-1.822375e-01 -4.665171e-01 -2.009588e+00 84 22 4
-4.059406e-02 -4.572740e-01 -1.998358e+00 66 3 2
-2.241347e-01 -4.555838e-01 -2.016519e+00 70 9 0
3.180830e-02 -4.554605e-01 -2.018305e+00 115 35 24
-1.834850e-01 -4.441963e-01 -2.002822e+00 82 19 2
-3.684002e-01 -4.565796e-01 -2.052607e+00 143 81 33
-4.736101e-01 -4.833834e-01 -2.130295e+00 156 124 82
-1.932271e-01 -4.356899e-01 -2.010239e+00 73 9 0
-1.930954e-01 -4.270669e-01 -2.010461e+00 77 17 0
-2.040540e-01 -3.903125e-01 -2.017002e+00 95 31 1
-7.442350e-02 -3.799998e-01 -1.997472e+00 131 51 35
-7.442350e-02 -3.799998e-01 -1.997472e+00 131 51 35
-3.573674e-01 -3.878075e-01 -2.049598e+00 142 84 31
-2.532158e-01 -3.759109e-01 -2.020803e+00 83 19 0
-2.046638e-01 -3.718784e-01 -2.017722e+00 89 25 1
-3.821977e-01 -3.765253e-01 -2.055262e+00 141 84 28
-1.069987e-01 -3.630308e-01 -2.011763e+00 150 59 38
-1.070740e-01 -3.633176e-01 -2.012451e+00 150 59 38
-1.539677e-01 -3.586689e-01 -2.010189e+00 110 33 2
-2.098003e-02 -3.518801e-01 -2.004564e+00 61 2 2
-1.950905e-01 -3.520788e-01 -2.013365e+00 82 23 8
9.038677e-03 -3.490761e-01 -2.007058e+00 119 43 35
3.957347e-02 -3.403016e-01 -2.009282e+00 111 43 31
5.867203e-02 -3.288407e-01 -1.995159e+00 69 0 1
-2.422152e-01 -3.302156e-01 -2.020312e+00 92 34 7
-6.889253e-02 -3.149320e-01 -2.007545e+00 63 6 5
-6.889888e-02 -3.147609e-01 -2.007182e+00 63 6 5
-1.271289e-01 -3.109982e-01 -1.990467e+00 116 41 13
-2.547224e-02 -3.103892e-01 -2.005975e+00 131 49 41
-2.561948e-01 -3.103261e-01 -2.026033e+00 99 38 6
-2.649873e-02 -2.869029e-01 -2.003047e+00 73 3 0
-3.344824e-01 -2.830461e-01 -2.049304e+00 147 90 43
-3.379259e-01 -2.791212e-01 -2.049863e+00 96 35 0
1.262515e-02 -2.573625e-01 -2.010571e+00 138 53 33
-4.162627e-02 -2.520393e-01 -2.007635e+00 109 25 5
-4.162627e-02 -2.520393e-01 -2.007635e+00 109 25 5
-2.047534e-01 -2.535729e-01 -2.025953e+00 136 79 18
3.507862e-01 -2.446463e-01 -2.020222e+00 201 186 162
-4.468575e-01 -2.547498e-01 -2.101134e+00 146 91 50
-3.784576e-02 -2.042686e-01 -2.012847e+00 160 69 49
-4.428205e-01 -2.173920e-01 -2.102558e+00 112 47 10
-2.982773e-01 -2.073460e-01 -2.044762e+00 139 80 24
-3.394554e-01 -2.083537e-01 -2.056929e+00 92 46 12
5.125660e-02 -1.956730e-01 -2.019991e+00 107 16 0
-3.724769e-01 -1.955931e-01 -2.063350e+00 142 96 43
5.210884e-02 -1.869985e-01 -2.015119e+00 142 54 34
-1.940530e-01 -1.805758e-01 -2.027269e+00 73 16 1
-1.940530e-01 -1.805758e-01 -2.027269e+00 73 16 1
-3.355131e-01 -1.805535e-01 -2.058745e+00 74 27 1
-8.412791e-02 -1.702399e-01 -2.019741e+00 141 90 42
-4.203931e-01 -1.692010e-01 -2.082393e+00 167 107 49
-3.395981e-01 -1.598495e-01 -2.057947e+00 131 81 23
9.033044e-02 -1.420053e-01 -2.027955e+00 149 89 51
-1.947993e-01 -1.425456e-01 -2.036998e+00 94 37 10
-2.030877e-01 -1.268852e-01 -2.037920e+00 141 88 37
-2.601833e-01 -1.115116e-01 -2.034419e+00 138 83 26
-2.598493e-01 -1.119113e-01 -2.035008e+00 138 83 26
-4.245316e-01 -1.071250e-01 -2.088901e+00 164 105 47
-6.963119e-02 -9.280675e-02 -2.015842e+00 79 29 10
-3.788728e-01 -9.287543e-02 -2.081970e+00 138 91 26
-3.220412e-01 -8.960036e-02 -2.040322e+00 141 90 30
-1.110306e-01 -8.485541e-02 -2.022578e+00 85 26 10
1.226107e-03 -8.106060e-02 -2.024293e+00 77 22 12
1.226107e-03 -8.106060e-02 -2.024293e+00 77 22 12
-9.640312e-02 -5.349085e-02 -2.021176e+00 53 11 7
1.074208e-01 -4.853112e-02 -2.031529e+00 138 81 37
-2.707934e-01 -4.439579e-02 -2.027965e+00 116 32 4
-4.278440e-01 -4.368301e-02 -2.098767e+00 150 94 46
-6.623509e-02 -3.697424e-02 -2.021739e+00 126 78 27
-6.431110e-02 -1.303817e-02 -2.029514e+00 117 30 3
3.840242e-02 1.900213e-03 -2.031537e+00 155 101 38
-2.510888e-01 5.234871e-02 -2.059094e+00 192 96 57
1.407862e-01 1.621476e-01 -2.073545e+00 151 107 60
-7.598805e-02 2.936743e-01 -2.119557e+00 43 34 44
-1.201134e-01 2.944549e-01 -2.123673e+00 52 38 47
-2.236961e-01 3.052017e-01 -2.148019e+00 50 38 50
1.326850e-03 3.002435e-01 -2.101694e+00 52 39 43
1.037457e-02 3.055970e-01 -2.104038e+00 55 42 50
1.037457e-02 3.055970e-01 -2.104038e+00 55 42 50
-1.781935e-01 3.182676e-01 -2.135894e+00 99 84 87
-1.754918e-01 3.297241e-01 -2.165360e+00 92 80 84
-3.559442e-01 3.380212e-01 -2.188463e+00 79 68 86
-4.224446e-01 3.946142e-01 -2.245280e+00 29 22 35
-5.991267e-02 4.239065e-01 -2.208726e+00 42 27 19
2.442486e+00 1.244077e+00 -3.002085e+00 12 11 6
2.321804e-01 -5.008155e-01 -1.860749e+00 144 175 105
2.321804e-01 -5.008155e-01 -1.860749e+00 144 175 105
-1.743893e-01 -7.568292e-01 -1.890309e+00 170 153 108
1.438903e-02 -6.673718e-01 -1.906581e+00 44 85 28
-5.396485e-02 -7.048985e-01 -1.892793e+00 177 156 110
-2.352134e-01 -7.221827e-01 -1.918787e+00 25 89 36
-3.301072e-01 -9.674903e-02 -2.057268e+00 102 58 23
-3.302668e-01 -9.689990e-02 -2.057753e+00 102 58 23
-3.596603e-01 -7.913042e-01 -1.893618e+00 173 185 134
9.515020e-02 -6.269680e-01 -1.907259e+00 165 176 123
-9.705374e-02 -1.114015e-01 -2.026794e+00 132 75 8
-9.705374e-02 -1.114015e-01 -2.026794e+00 132 75 8
1.488793e-01 -6.641051e-02 -2.082907e+00 129 83 42
9.407284e-01 -5.994015e-01 -1.793559e+00 179 165 122
6.490796e-03 -3.689150e-01 -2.010937e+00 62 6 2
-3.365360e-01 -2.246001e-01 -2.063183e+00 142 94 19
-2.135429e-02 -1.638527e-01 -2.041430e+00 83 39 27
-2.269768e-02 -9.125470e-02 -2.012568e+00 93 51 28
-2.269768e-02 -9.125470e-02 -2.012568e+00 93 51 28
-3.523555e-01 2.344605e-01 -1.987384e+00 95 85 77
2.844841e-01 -5.386694e-01 -1.888556e+00 96 111 79
2.422319e-01 -5.056310e-01 -1.897565e+00 13 79 9
-2.395075e-01 -4.815280e-01 -2.021958e+00 141 77 27
7.084333e-02 -3.698535e-01 -2.030956e+00 61 0 0
6.396996e-02 -3.316919e-01 -2.015087e+00 57 2 0
5.762443e-01 -2.779222e-01 -2.012141e+00 196 183 143
-3.974349e-01 -2.130355e-01 -2.101480e+00 142 99 30
-3.914576e-01 2.876603e-01 -2.143039e+00 108 94 87
6.828149e-01 -9.151493e-01 -1.780819e+00 28 22 6
-4.236795e-01 -7.987528e-01 -1.926519e+00 195 183 156
-3.119780e-01 -7.654348e-01 -1.909434e+00 170 198 121
4.659102e-01 -6.453426e-01 -1.776714e+00 59 57 46
4.659102e-01 -6.453426e-01 -1.776714e+00 59 57 46
-1.897468e-01 -7.145792e-01 -1.904575e+00 32 47 12
-2.195442e-01 -7.083347e-01 -1.909845e+00 24 66 21
-1.232839e-02 -6.832370e-01 -1.900628e+00 46 49 2
-1.578555e-01 -6.757883e-01 -1.914527e+00 187 178 142
1.782998e-01 -5.514125e-01 -1.895985e+00 16 30 0
1.780138e-01 -5.291914e-01 -1.893452e+00 5 65 2
3.269983e-01 -4.655748e-01 -1.898935e+00 15 55 5
6.203414e-03 -5.109913e-01 -2.007864e+00 77 1 1
-1.872197e-01 -4.789184e-01 -2.009712e+00 131 66 24
-1.871412e-01 -4.784859e-01 -2.008350e+00 131 66 24
-1.969243e-01 -4.711793e-01 -2.015326e+00 141 80 32
1.374746e-01 -3.828282e-01 -2.044136e+00 23 2 0
-2.555147e-01 -3.696716e-01 -2.026541e+00 85 15 0
1.465121e-01 -3.599402e-01 -2.041144e+00 202 187 158
1.974789e-02 -3.091731e-01 -2.010944e+00 117 40 26
7.032336e-02 -2.933443e-01 -2.080868e+00 116 37 27
1.406792e-01 -2.700317e-01 -2.035827e+00 130 113 70
-3.818525e-01 -2.753614e-01 -2.064796e+00 75 31 2
2.896087e-03 -2.185187e-01 -2.021660e+00 105 15 0
-7.611272e-02 -1.904981e-01 -2.023142e+00 161 110 71
-1.071853e-01 -9.075743e-02 -2.024670e+00 134 77 17
-4.479374e-01 -8.474931e-02 -2.100548e+00 114 52 13
-5.779457e-02 -7.807789e-02 -2.020293e+00 132 78 17
-3.043375e-01 -6.164252e-02 -2.042278e+00 156 105 48
-4.499476e-01 -4.596195e-02 -2.097768e+00 113 54 14
1.911145e-02 -3.875307e-02 -2.036092e+00 133 86 39
-7.150025e-02 -3.543105e-02 -2.024956e+00 54 2 0
-1.472845e-01 2.943533e-01 -2.122688e+00 47 35 46
-4.689139e-01 3.117202e-01 -2.155287e+00 57 41 35
-4.126495e-01 -8.049678e-01 -1.875780e+00 171 200 162
-3.600686e-01 -8.422268e-01 -1.912374e+00 41 64 9
-4.240796e-01 -8.222874e-01 -1.909360e+00 30 65 1
4.229290e-01 -7.187532e-01 -1.765045e+00 32 29 14
4.259923e-01 -7.042429e-01 -1.752845e+00 54 48 34
4.602058e-01 -7.089772e-01 -1.770266e+00 65 62 52
3.258642e-01 -7.771117e-01 -1.860547e+00 88 78 51
-3.147365e-01 -7.806877e-01 -1.912681e+00 171 193 147
-2.354900e-01 -7.597910e-01 -1.906166e+00 30 66 23
3.863145e-01 -6.797169e-01 -1.806892e+00 37 37 29
-2.342073e-01 -7.097937e-01 -1.916236e+00 188 181 150
9.410885e-01 -6.421806e-01 -1.785869e+00 51 49 30
9.307073e-01 -5.973435e-01 -1.783608e+00 181 168 126
-7.654113e-03 -6.419121e-01 -1.899342e+00 51 109 50
2.594299e-01 -6.386358e-01 -1.905398e+00 23 16 6
6.655089e-01 -5.693511e-01 -1.786778e+00 67 64 54
7.767556e-02 -6.192152e-01 -1.894286e+00 154 182 139
3.745642e-01 -5.699916e-01 -1.857271e+00 43 43 35
1.222491e-01 -5.887362e-01 -1.897871e+00 43 76 25
4.414298e-01 -5.285066e-01 -1.863917e+00 55 52 45
3.102972e-01 -5.072110e-01 -1.887166e+00 182 211 163
3.153549e-01 -5.050095e-01 -1.885685e+00 55 76 30
-2.504477e-01 -5.474284e-01 -2.015659e+00 164 104 65
-1.890731e-01 -5.302249e-01 -2.010598e+00 79 13 0
3.631907e-01 -4.800269e-01 -1.890688e+00 37 72 20
-4.276342e-02 -5.262254e-01 -2.004807e+00 73 1 1
-5.005318e-02 -5.244169e-01 -2.004235e+00 72 5 1
3.291815e-01 -4.740416e-01 -1.890168e+00 43 130 43
-2.108701e-01 -5.246540e-01 -2.014520e+00 90 30 7
9.474290e-02 -5.240922e-01 -2.022506e+00 63 28 21
2.400197e-03 -5.141690e-01 -2.012126e+00 121 32 24
2.947268e-01 -4.604413e-01 -1.890210e+00 8 24 4
-2.232157e-01 -4.943042e-01 -2.017182e+00 69 11 0
-2.317542e-01 -4.908481e-01 -2.015876e+00 80 16 2
-2.237930e-01 -4.752064e-01 -2.016393e+00 72 13 0
-2.548177e-01 -4.795884e-01 -2.038918e+00 137 73 29
-3.198722e-03 -4.706062e-01 -2.014457e+00 75 3 1
-2.676411e-03 -4.721201e-01 -2.017328e+00 75 3 1
-1.914615e-01 -4.670756e-01 -2.012185e+00 80 13 0
-4.065048e-02 -4.675066e-01 -2.011590e+00 74 6 2
-1.923325e-01 -4.555142e-01 -2.012842e+00 79 13 0
-2.249652e-01 -4.574797e-01 -2.019031e+00 64 6 0
-2.456613e-01 -4.589480e-01 -2.022510e+00 132 68 13
-4.067250e-01 -4.712005e-01 -2.068727e+00 161 98 54
-2.147992e-01 -4.323797e-01 -2.021129e+00 81 21 1
-3.568232e-01 -4.273381e-01 -2.050945e+00 148 87 39
-3.736645e-01 -4.274056e-01 -2.056647e+00 91 33 2
-3.968917e-01 -4.269566e-01 -2.065227e+00 138 87 33
-3.355290e-02 -3.942779e-01 -2.004952e+00 115 42 32
-3.299177e-02 -3.968788e-01 -2.011948e+00 115 42 32
-3.970061e-01 -4.080652e-01 -2.061697e+00 146 89 30
-1.953743e-01 -3.938428e-01 -2.022432e+00 79 18 1
-6.106336e-02 -3.872475e-01 -2.009270e+00 69 4 2
-1.862457e-01 -3.804387e-01 -2.017345e+00 77 13 1
-2.420645e-01 -3.731546e-01 -2.027323e+00 73 11 0
-2.881476e-02 -3.658866e-01 -2.002825e+00 116 34 21
-1.870122e-01 -3.553364e-01 -2.017428e+00 71 12 2
5.275600e-02 -3.544883e-01 -2.020912e+00 74 2 2
-2.422172e-01 -3.526834e-01 -2.025107e+00 80 16 6
-1.873858e-01 -3.428902e-01 -2.021628e+00 74 8 3
-4.383265e-01 -3.389013e-01 -2.075408e+00 121 67 20
-1.875735e-01 -3.226085e-01 -2.019230e+00 73 14 0
-3.683115e-02 -3.172570e-01 -2.009009e+00 60 2 3
-1.974778e-01 -3.160842e-01 -2.027263e+00 84 28 6
1.818427e-03 -3.101708e-01 -2.015904e+00 58 0 1
-6.867328e-02 -3.053509e-01 -2.013414e+00 63 3 3
-6.118807e-02 -2.946329e-01 -2.008209e+00 69 4 2
-3.459919e-01 -2.523690e-01 -1.827036e+00 123 77 35
6.754515e-01 -3.042411e-01 -2.082103e+00 79 67 38
6.115359e-01 -2.925225e-01 -2.035243e+00 49 51 30
-4.082115e-01 -2.965121e-01 -2.072861e+00 115 57 3
2.824543e-02 -2.808219e-01 -2.017033e+00 121 55 49
-4.105167e-01 -2.555689e-01 -2.075717e+00 108 57 2
-1.785578e-01 -2.422770e-01 -2.024802e+00 80 21 0
-2.277730e-01 -2.286697e-01 -2.034934e+00 145 94 26
-1.784956e-01 -2.117402e-01 -2.025485e+00 85 20 4
-1.777530e-01 -2.018977e-01 -2.019860e+00 101 40 9
-9.594658e-02 -1.916184e-01 -2.023046e+00 159 98 53
-3.272152e-01 -1.885661e-01 -2.043561e+00 100 46 0
-3.123732e-01 -1.797047e-01 -2.052954e+00 77 39 1
6.658031e-02 -1.494997e-01 -2.026589e+00 108 45 2
-3.245663e-01 -1.541338e-01 -2.053439e+00 138 86 28
-1.850345e-02 -1.464958e-01 -2.018482e+00 58 5 3
-1.287688e-01 -1.322030e-01 -2.028042e+00 118 42 4
-1.639197e-01 -1.305762e-01 -2.020539e+00 170 113 69
-1.640395e-01 -1.306917e-01 -2.020574e+00 170 113 69
-1.799593e-01 -1.236387e-01 -2.030713e+00 86 25 3
-4.668035e-02 -1.081353e-01 -2.013058e+00 126 72 20
-2.196257e-01 -1.097795e-01 -2.039162e+00 71 20 4
-1.909884e-01 -1.046196e-01 -2.032261e+00 78 32 8
-3.349513e-01 -1.010065e-01 -2.059522e+00 71 18 6
-4.681193e-01 -1.021773e-01 -2.122004e+00 134 102 56
-3.349238e-01 -8.710799e-02 -2.057437e+00 141 89 27
-2.144261e-01 -7.642337e-02 -2.040602e+00 63 7 1
-1.960150e-01 -7.549827e-02 -2.035316e+00 80 27 2
-4.177590e-01 -6.564548e-02 -2.085961e+00 105 61 3
-2.578511e-01 -4.872404e-02 -2.027480e+00 164 80 50
1.109447e-01 -3.932063e-02 -2.039246e+00 105 49 2
-9.745728e-02 -3.691095e-02 -2.029396e+00 61 8 0
-9.757597e-02 -3.699655e-02 -2.031106e+00 61 8 0
-1.186049e-01 -3.374573e-02 -2.034466e+00 123 73 27
-3.527353e-01 -2.962946e-02 -2.065223e+00 119 35 9
9.938683e-02 -1.315552e-02 -2.040748e+00 138 87 35
-8.226991e-02 -1.604185e-02 -2.033375e+00 117 30 0
-5.599991e-02 -1.247142e-02 -2.018609e+00 120 30 2
-3.565372e-01 -1.086468e-02 -2.061616e+00 122 35 5
-2.682792e-01 5.902146e-02 -2.049904e+00 135 38 3
-1.029221e-01 9.725827e-02 -2.038418e+00 43 38 38
-4.865365e-02 2.906524e-01 -2.110455e+00 102 89 98
-2.556840e-01 3.038756e-01 -2.139909e+00 95 84 88
-8.880776e-02 3.081738e-01 -2.125532e+00 44 34 42
-3.066756e-01 3.191218e-01 -2.161951e+00 44 33 45
-1.771582e-01 3.174483e-01 -2.130772e+00 100 86 90
-9.883253e-02 3.291346e-01 -2.150019e+00 48 35 44
-1.086943e-01 3.286288e-01 -2.150767e+00 50 37 46
-4.756908e-01 3.501318e-01 -2.183870e+00 57 40 16
3.716934e-01 -5.138444e-01 -1.875667e+00 4 6 1
9.330386e-01 -6.973991e-01 -1.771024e+00 166 151 112
-1.707547e-01 -7.243042e-01 -1.878776e+00 37 91 30
-3.177582e-01 -7.531490e-01 -1.910913e+00 22 81 22
-1.705654e-01 -6.713143e-01 -1.887391e+00 33 92 35
-1.495630e-01 -6.623536e-01 -1.887848e+00 35 90 30
1.698200e-02 -5.931951e-01 -1.828656e+00 159 182 124
9.544261e-03 -5.903306e-01 -1.851613e+00 14 105 21
-4.085870e-01 -7.859963e-01 -1.861073e+00 136 149 105
-4.146408e-01 -7.903595e-01 -1.908076e+00 28 85 33
5.317602e-01 -6.440905e-01 -1.767672e+00 59 57 41
-1.176187e-01 -3.204260e-01 -2.011576e+00 132 60 28
-1.176187e-01 -3.204260e-01 -2.011576e+00 132 60 28
-2.738943e-01 -2.003642e-01 -2.032281e+00 99 41 0
-2.858539e-01 -1.595886e-01 -2.034870e+00 96 42 0
-2.858539e-01 -1.595886e-01 -2.034870e+00 96 42 0
-8.853287e-02 -1.226497e-01 -2.028809e+00 92 45 23
-1.127457e-01 -3.506314e-02 -2.021394e+00 80 36 20
-1.137533e-01 -3.605804e-02 -2.018353e+00 80 36 20
-6.555533e-02 -2.112162e-02 -2.016224e+00 156 116 44
-2.154824e-01 2.703367e-01 -2.034710e+00 52 42 59
-3.348631e-01 3.349197e-01 -2.179206e+00 52 41 58
-2.836359e-01 -7.856523e-01 -1.874849e+00 148 139 91
-2.060339e-01 -7.664157e-01 -1.901442e+00 54 71 24
-2.030442e-01 -7.101694e-01 -1.904486e+00 187 212 147
2.314473e-01 -5.602665e-01 -1.883158e+00 13 31 0
7.709987e-01 -4.670282e-01 -1.832236e+00 39 29 5
-2.752220e-01 -2.989365e-01 -2.046653e+00 68 25 1
-6.324280e-02 -1.674032e-01 -2.036666e+00 75 27 12
-4.118224e-01 -1.515154e-01 -2.086898e+00 104 66 11
-1.076569e-01 -1.092503e-01 -2.028026e+00 141 81 16
-7.977245e-02 -8.007514e-02 -2.026982e+00 94 51 16
-6.632542e-02 -5.561936e-02 -2.022002e+00 60 25 8
-6.632542e-02 -5.561936e-02 -2.022002e+00 60 25 8
-3.482777e-01 -7.922418e-01 -1.896777e+00 173 197 127
2.606717e-01 -5.367388e-01 -1.876867e+00 15 42 15
2.848322e-01 -5.397168e-01 -1.890080e+00 93 110 73
-3.010125e-01 -5.171120e-01 -2.027241e+00 86 20 0
-3.262884e-01 -5.174474e-01 -2.043475e+00 94 41 2
-3.262884e-01 -5.174474e-01 -2.043475e+00 94 41 2
4.142723e-03 -4.866036e-01 -1.994021e+00 78 4 3
-3.941208e-01 -4.749833e-01 -2.062356e+00 96 41 3
-1.787349e-01 -4.186511e-01 -2.013453e+00 131 65 13
-2.300866e-01 -3.930341e-01 -2.020237e+00 77 25 0
-2.948595e-03 -3.915676e-01 -2.022649e+00 60 0 0
-1.357677e-02 -3.836667e-01 -2.010410e+00 126 33 19
-6.538740e-02 -3.743781e-01 -2.006224e+00 137 39 20
-1.741276e-01 -3.692661e-01 -2.006728e+00 107 44 3
9.464819e-03 -3.714095e-01 -2.023164e+00 66 7 5
-3.669304e-03 -3.581425e-01 -1.997088e+00 124 31 17
-3.669304e-03 -3.581425e-01 -1.997088e+00 124 31 17
3.077064e-02 -3.591752e-01 -2.006246e+00 60 2 0
3.350807e-03 -3.492459e-01 -2.005484e+00 73 1 1
3.350807e-03 -3.492459e-01 -2.005484e+00 73 1 1
1.664672e-02 -3.480127e-01 -2.011482e+00 64 3 2
2.251391e-01 -3.168063e-01 -2.036385e+00 37 31 19
-4.065338e-01 -2.298216e-01 -2.075081e+00 100 57 4
-3.620402e-01 -1.583746e-01 -2.061804e+00 139 91 28
-3.403084e-02 -1.054109e-01 -2.020355e+00 130 72 9
-4.718290e-01 -8.825268e-02 -2.135534e+00 135 95 52
-1.278700e-01 -5.586848e-02 -2.019851e+00 170 113 58
3.937052e-01 -6.870810e-01 -1.780323e+00 42 42 34
3.984021e-01 -6.927023e-01 -1.786365e+00 42 42 34
-2.519796e-01 -7.420583e-01 -1.905974e+00 40 58 2
4.274582e-01 -6.364794e-01 -1.790963e+00 78 79 68
9.389709e-01 -6.163065e-01 -1.789134e+00 97 89 60
1.626786e-01 -5.901222e-01 -1.886938e+00 123 139 92
2.828781e-01 -5.291085e-01 -1.884192e+00 12 54 5
7.727611e-01 -4.849839e-01 -1.797685e+00 63 58 47
4.948916e-01 -4.946926e-01 -1.866976e+00 61 61 51
3.646656e-01 -4.813723e-01 -1.877242e+00 33 79 21
-3.601430e-01 -5.280947e-01 -2.042862e+00 168 109 67
-2.294253e-01 -4.571848e-01 -2.014880e+00 136 75 24
-1.577777e-01 -3.934210e-01 -2.014075e+00 174 110 66
-1.196016e-01 -3.544557e-01 -2.012746e+00 117 27 1
-1.027500e-01 -3.148609e-01 -2.007302e+00 115 24 0
2.475198e-02 -2.807287e-01 -2.027412e+00 66 0 0
-3.968408e-01 -2.650154e-01 -2.074984e+00 97 46 5
-3.847921e-01 -2.431350e-01 -2.099083e+00 151 99 32
-1.780830e-01 -2.103731e-01 -2.018097e+00 91 26 2
-3.585099e-01 -2.049642e-01 -2.054094e+00 80 38 0
-1.623135e-01 -1.845931e-01 -2.017129e+00 165 118 63
7.725660e-02 -1.747576e-01 -2.015957e+00 145 59 36
-1.742272e-01 -8.660077e-02 -2.016849e+00 141 83 24
-2.576210e-01 -6.514031e-02 -2.017533e+00 159 104 44
3.969214e-02 -3.194522e-02 -2.023946e+00 76 32 2
-3.127644e-03 -2.222214e-03 -2.036589e+00 120 33 2
-3.294459e-01 2.738917e-01 -2.129120e+00 116 106 96
-1.651428e-01 3.107747e-01 -2.118821e+00 102 91 96
4.306312e-01 -8.837768e-01 -1.793837e+00 67 65 50
-4.628093e-01 -8.589667e-01 -1.896685e+00 186 183 142
-4.173340e-01 -8.446764e-01 -1.906627e+00 46 98 46
-3.299471e-01 -7.786070e-01 -1.865708e+00 156 176 134
4.487105e-01 -6.967813e-01 -1.757121e+00 61 59 46
-3.478955e-01 -7.803157e-01 -1.889957e+00 25 75 1
-3.966843e-01 -7.933777e-01 -1.906986e+00 41 103 33
-3.472611e-01 -7.540488e-01 -1.874873e+00 68 150 65
-3.138034e-01 -7.427359e-01 -1.873212e+00 53 96 47
-3.310002e-01 -7.706744e-01 -1.910253e+00 177 211 153
-2.689537e-01 -7.440582e-01 -1.910023e+00 171 213 147
4.087771e-01 -6.340684e-01 -1.793554e+00 22 22 14
3.968700e-01 -6.276063e-01 -1.797160e+00 78 76 63
-4.484825e-02 -6.489884e-01 -1.885791e+00 26 78 3
1.795673e-01 -5.864762e-01 -1.883187e+00 100 102 61
6.868672e-02 -5.808888e-01 -1.882843e+00 49 140 45
1.482884e-01 -5.334397e-01 -1.895750e+00 44 78 14
3.199578e-01 -5.116691e-01 -1.889081e+00 152 178 134
-1.753033e-01 -5.282150e-01 -2.007387e+00 136 71 23
-2.293225e-01 -4.884145e-01 -2.022071e+00 142 80 36
-2.190770e-01 -4.779674e-01 -2.017622e+00 128 68 23
-2.522255e-01 -4.703957e-01 -2.022378e+00 144 75 23
-2.402389e-01 -4.721179e-01 -2.028886e+00 140 81 38
6.245446e-01 -4.152072e-01 -1.873987e+00 58 55 46
-4.622507e-01 -4.928084e-01 -2.114744e+00 127 80 38
-1.847971e-01 -4.520880e-01 -2.020219e+00 82 22 2
-1.360434e-01 -4.294611e-01 -2.011915e+00 160 72 42
-1.931911e-01 -4.271916e-01 -2.010841e+00 88 27 6
-1.854871e-01 -4.195903e-01 -2.017654e+00 78 12 1
-1.935483e-01 -4.085643e-01 -2.010856e+00 74 7 1
-4.117881e-02 -3.963691e-01 -2.025760e+00 119 36 21
-3.458075e-01 -3.833582e-01 -2.048154e+00 120 47 4
-3.448121e-01 -3.824390e-01 -2.044471e+00 120 47 4
-1.482244e-01 -3.697783e-01 -2.015323e+00 157 68 40
5.081411e-02 -3.658840e-01 -2.009648e+00 64 2 1
2.988441e-02 -3.564837e-01 -2.011716e+00 70 4 2
-2.622334e-01 -3.464054e-01 -2.020654e+00 106 39 8
5.696726e-02 -3.300259e-01 -2.009341e+00 118 38 28
-2.567388e-01 -3.267666e-01 -2.031655e+00 141 82 18
-1.974723e-01 -3.235530e-01 -2.022840e+00 79 20 0
-1.369088e-01 -3.122030e-01 -2.005266e+00 132 37 12
-5.345417e-02 -2.949606e-01 -2.007873e+00 66 6 7
4.517001e-03 -2.868526e-01 -2.026826e+00 123 41 24
8.124656e-02 -2.841000e-01 -2.022026e+00 113 34 22
-2.903014e-01 -2.794572e-01 -2.015901e+00 144 89 33
-3.401907e-01 -2.859051e-01 -2.049754e+00 110 47 6
-3.401907e-01 -2.859051e-01 -2.049754e+00 110 47 6
-3.372001e-01 -2.780237e-01 -2.046509e+00 111 49 0
4.951841e-01 -2.578999e-01 -2.019624e+00 84 80 66
-1.795965e-01 -2.367215e-01 -2.020661e+00 137 86 20
-2.084849e-01 -2.235711e-01 -2.018905e+00 139 90 22
-3.300521e-02 -2.199948e-01 -2.005317e+00 152 57 32
-9.003124e-02 -2.114124e-01 -2.009248e+00 159 73 39
-1.865731e-01 -2.062280e-01 -2.026469e+00 146 90 24
-3.523769e-01 -2.015924e-01 -2.049679e+00 148 102 44
-3.450380e-01 -1.871959e-01 -2.051180e+00 107 56 2
-3.647325e-01 -1.885634e-01 -2.062038e+00 102 49 0
-3.597673e-01 -1.698150e-01 -2.059401e+00 92 51 4
-3.729340e-02 -1.575705e-01 -2.012499e+00 70 17 0
-1.593805e-01 -1.575382e-01 -2.029785e+00 110 47 4
-3.874954e-01 -1.352943e-01 -2.063959e+00 110 60 0
1.245320e-01 -1.148571e-01 -2.059637e+00 152 92 47
-2.920745e-01 -1.045391e-01 -2.049681e+00 93 39 8
-2.943846e-01 -9.969478e-02 -2.047476e+00 144 96 41
-3.745791e-01 -9.871291e-02 -2.060304e+00 101 57 6
-1.302212e-01 -9.068575e-02 -2.016694e+00 125 40 9
-2.391791e-02 -5.305816e-02 -2.013599e+00 58 12 2
-4.043864e-01 -5.519510e-02 -2.080039e+00 118 66 4
-3.554846e-03 -4.909289e-02 -2.018813e+00 67 13 6
-4.131305e-01 -4.931999e-02 -2.088431e+00 101 53 3
5.160214e-02 -2.734929e-02 -2.024262e+00 61 20 0
-3.881748e-01 -3.105255e-02 -2.081607e+00 157 81 49
-3.835697e-01 -2.746370e-02 -2.078728e+00 126 43 13
-3.610747e-01 -1.451443e-02 -2.072718e+00 123 42 7
-3.593821e-01 -1.511013e-02 -2.066568e+00 123 42 7
1.152677e-01 1.756956e-02 -2.056391e+00 97 50 6
-3.094324e-01 2.333549e-01 -2.020561e+00 43 35 49
-2.367786e-01 3.018516e-01 -2.140672e+00 100 88 93
-2.212586e-01 2.993541e-01 -2.131939e+00 54 42 52
-4.871584e-01 3.186741e-01 -2.196670e+00 97 84 74
-4.488043e-01 3.889735e-01 -2.216522e+00 175 167 121
-6.794676e-02 3.807950e-01 -2.143220e+00 75 65 73
-3.897420e-01 -1.890634e-01 -2.086918e+00 126 72 0
-3.470795e-01 -7.421101e-01 -1.871057e+00 28 111 27
-1.877816e-01 -7.336999e-01 -1.889736e+00 20 100 19
5.574295e-02 -6.255057e-01 -1.884153e+00 28 92 23
-2.230513e-01 -7.623058e-01 -1.911869e+00 168 188 130
8.119176e-01 -4.531367e-01 -1.930231e+00 201 185 140
-2.803192e-01 -7.799278e-01 -1.882821e+00 54 98 33
-1.914869e-02 -1.933917e-01 -2.028136e+00 136 23 3
-1.175917e-01 -3.204186e-01 -2.011700e+00 137 63 24
-1.914542e-01 -3.203840e-01 -2.026079e+00 97 40 3
-5.228051e-02 -1.161251e-01 -2.017528e+00 96 42 11
-4.027095e-01 -1.237657e-02 -2.082658e+00 145 49 11
-4.027095e-01 -1.237657e-02 -2.082658e+00 145 49 11
-2.988050e-01 -7.382520e-01 -1.857296e+00 31 98 40
9.649628e-03 -6.608922e-01 -1.886721e+00 55 75 4
-3.760574e-02 -3.841811e-01 -2.046834e+00 131 30 12
-1.807094e-01 -3.243917e-01 -2.018264e+00 149 92 11
3.929788e-02 -2.982015e-01 -2.023373e+00 66 6 7
-3.046614e-01 -2.885293e-01 -2.029129e+00 93 40 6
5.687610e-02 -2.411794e-01 -2.014594e+00 155 59 34
-5.608782e-02 -9.525667e-02 -2.008653e+00 90 37 6
8.751473e-02 -4.018888e-02 -2.051363e+00 103 52 3
-3.668871e-01 -2.344583e-02 -2.070074e+00 147 48 16
-3.990183e-01 -7.940964e-01 -1.871273e+00 162 191 114
-3.170498e-01 -7.840210e-01 -1.872000e+00 152 169 108
-3.180679e-01 -7.765665e-01 -1.872712e+00 27 80 2
4.404373e-01 -7.242687e-01 -1.780176e+00 36 32 5
2.762175e-01 -6.638505e-01 -1.917067e+00 20 14 2
2.762175e-01 -6.638505e-01 -1.917067e+00 20 14 2
-2.725578e-01 -5.495162e-01 -2.026080e+00 173 115 68
3.615201e-01 -4.497304e-01 -1.878232e+00 150 112 60
5.002446e-01 -4.177035e-01 -1.899406e+00 108 103 81
4.940654e-01 -4.142642e-01 -1.892108e+00 108 103 81
-4.044238e-03 -2.396301e-01 -1.997459e+00 159 69 37
-1.790272e-01 -2.115439e-01 -2.029813e+00 108 46 0
-3.987922e-01 -1.701500e-01 -2.065801e+00 122 70 0
2.824459e-02 -1.314464e-01 -2.033250e+00 82 25 2
-4.022155e-01 -1.313200e-01 -2.072388e+00 118 69 1
2.463384e-02 -8.334400e-02 -2.055974e+00 84 22 0
-1.094983e-01 -5.486163e-02 -2.017465e+00 71 9 4
-1.098462e-01 -5.462780e-02 -2.017580e+00 71 9 4
3.115214e-02 8.511733e-04 -2.031772e+00 171 117 55
