ply
format ascii 1.0
element face 0
property list uchar int vertex_indices
element vertex 933
property float x
property float y
property float z
property uchar diffuse_red
property uchar diffuse_green
property uchar diffuse_blue
end_header
-8.513351e-02 -3.546198e-01 -1.851807e+00 73 1 0
-3.123897e-01 -3.519294e-01 -1.884568e+00 105 35 0
-1.884008e-01 -3.488535e-01 -1.853289e+00 111 43 1
-6.649044e-02 -3.483499e-01 -1.841531e+00 66 2 1
-6.629005e-02 -3.485403e-01 -1.842340e+00 66 2 1
-2.477539e-01 -3.474514e-01 -1.864415e+00 104 34 0
-2.477539e-01 -3.474514e-01 -1.864415e+00 104 34 0
-3.193495e-01 -3.508440e-01 -1.890415e+00 104 46 1
-3.193495e-01 -3.508440e-01 -1.890415e+00 104 46 1
-8.120828e-02 -3.489686e-01 -1.850663e+00 138 39 22
-2.003139e-01 -3.459928e-01 -1.859213e+00 153 89 17
-2.004649e-01 -3.461615e-01 -1.861415e+00 153 89 17
-3.292881e-01 -3.488608e-01 -1.897943e+00 100 40 0
-3.278596e-01 -3.482675e-01 -1.891682e+00 100 40 0
-1.177242e-01 -3.440864e-01 -1.839550e+00 88 8 4
-1.171672e-01 -3.445851e-01 -1.844841e+00 88 8 4
-3.585032e-01 -3.493987e-01 -1.911166e+00 109 47 1
-3.276555e-01 -3.434171e-01 -1.898453e+00 154 94 23
-9.444366e-02 -3.402975e-01 -1.843631e+00 71 5 1
-1.062692e-01 -3.365396e-01 -1.840681e+00 146 48 16
-1.763733e-01 -3.349730e-01 -1.844948e+00 178 119 73
5.116419e-01 -3.429626e-01 -1.805637e+00 38 26 12
-5.719189e-02 -3.367600e-01 -1.858443e+00 72 3 3
-5.963890e-02 -3.347476e-01 -1.846006e+00 72 3 3
-2.478528e-01 -3.316297e-01 -1.853001e+00 99 31 1
-2.478528e-01 -3.316297e-01 -1.853001e+00 99 31 1
-2.009033e-01 -3.311946e-01 -1.851276e+00 159 94 25
-1.047411e-01 -3.295065e-01 -1.843597e+00 83 3 0
-7.472818e-02 -3.274272e-01 -1.824461e+00 135 37 20
-2.630185e-02 -3.305220e-01 -1.846934e+00 129 33 19
-2.630185e-02 -3.305220e-01 -1.846934e+00 129 33 19
-5.769623e-02 -3.324489e-01 -1.871930e+00 131 32 9
-5.817115e-02 -3.316584e-01 -1.871084e+00 131 32 9
-3.942855e-02 -3.293073e-01 -1.847989e+00 80 0 5
-3.942855e-02 -3.293073e-01 -1.847989e+00 80 0 5
-7.633469e-02 -3.275354e-01 -1.860673e+00 72 0 0
-7.617912e-02 -3.276340e-01 -1.862099e+00 72 0 0
-3.053330e-02 -3.256499e-01 -1.850017e+00 66 0 4
-2.933993e-02 -3.205985e-01 -1.824227e+00 76 5 6
-2.933993e-02 -3.205985e-01 -1.824227e+00 76 5 6
-1.480129e-01 -3.213802e-01 -1.850911e+00 143 35 4
-1.480129e-01 -3.213802e-01 -1.850911e+00 143 35 4
-1.896524e-01 -3.199381e-01 -1.847214e+00 123 56 4
-1.895854e-01 -3.196674e-01 -1.845480e+00 123 56 4
-1.896524e-01 -3.199381e-01 -1.847214e+00 123 56 4
-8.039962e-03 -3.245781e-01 -1.881649e+00 78 1 5
-1.323136e-02 -3.131796e-01 -1.846251e+00 135 38 22
-1.266785e-02 -3.135384e-01 -1.849159e+00 135 38 22
-2.324008e-01 -3.070494e-01 -1.853526e+00 84 26 0
3.310921e-02 -3.099435e-01 -1.840557e+00 116 24 0
-2.087305e-01 -3.036132e-01 -1.859086e+00 156 97 21
-2.268249e-01 -3.016439e-01 -1.846726e+00 156 99 23
1.062610e-02 -3.025399e-01 -1.834307e+00 78 0 1
1.062610e-02 -3.025399e-01 -1.834307e+00 78 0 1
-6.681717e-03 -3.025770e-01 -1.844224e+00 79 0 1
-2.464908e-01 -3.006489e-01 -1.858863e+00 158 99 23
7.613388e-03 -2.985476e-01 -1.835980e+00 129 38 21
7.885229e-03 -2.984673e-01 -1.836431e+00 129 38 21
-5.871070e-02 -2.970268e-01 -1.831234e+00 70 4 0
-5.817202e-02 -2.972361e-01 -1.833745e+00 70 4 0
-1.177846e-01 -2.947429e-01 -1.832235e+00 78 3 4
4.752714e-03 -2.952317e-01 -1.842037e+00 67 0 0
4.752714e-03 -2.952317e-01 -1.842037e+00 67 0 0
-4.199971e-02 -2.931487e-01 -1.833263e+00 67 3 1
-6.278513e-02 -2.944816e-01 -1.856364e+00 136 40 19
-5.656915e-02 -2.908918e-01 -1.837627e+00 133 40 24
-5.746857e-02 -2.905919e-01 -1.832848e+00 133 40 24
4.399165e-01 -2.937839e-01 -1.800010e+00 38 29 3
1.384701e-02 -2.895473e-01 -1.843750e+00 82 0 1
6.387782e-03 -2.877075e-01 -1.817719e+00 82 0 1
-2.462309e-02 -2.859456e-01 -1.828109e+00 77 0 0
-2.569804e-02 -2.857392e-01 -1.824227e+00 77 0 0
-9.406061e-02 -2.851669e-01 -1.832944e+00 137 39 14
-9.406061e-02 -2.851669e-01 -1.832944e+00 137 39 14
1.240971e-01 -2.870962e-01 -1.864602e+00 49 39 30
-7.808984e-02 -2.820368e-01 -1.829995e+00 141 37 21
-1.107883e-01 -2.805992e-01 -1.826923e+00 78 8 9
-1.107883e-01 -2.805992e-01 -1.826923e+00 78 8 9
-6.952658e-02 -2.791316e-01 -1.823394e+00 135 33 11
-6.952658e-02 -2.791316e-01 -1.823394e+00 135 33 11
-3.731854e-02 -2.791975e-01 -1.840655e+00 77 5 2
-4.108108e-02 -2.782132e-01 -1.823122e+00 77 5 2
-2.636965e-01 -2.756038e-01 -1.855971e+00 76 28 3
-2.813296e-02 -2.670314e-01 -1.825317e+00 136 33 12
-2.813296e-02 -2.670314e-01 -1.825317e+00 136 33 12
-1.847668e-02 -2.646095e-01 -1.833462e+00 132 38 14
-3.270861e-01 -2.648188e-01 -1.897698e+00 83 28 0
-3.248218e-01 -2.643241e-01 -1.883875e+00 83 28 0
1.330965e-02 -2.647028e-01 -1.881717e+00 74 2 0
1.330965e-02 -2.647028e-01 -1.881717e+00 74 2 0
-2.527742e-02 -2.587422e-01 -1.819980e+00 65 1 0
4.539307e-01 -2.629613e-01 -1.862007e+00 15 5 0
-2.244163e-03 -2.568461e-01 -1.832450e+00 127 36 17
-2.244163e-03 -2.568461e-01 -1.832450e+00 127 36 17
-1.017789e-01 -2.527031e-01 -1.829227e+00 137 29 1
-3.677021e-01 -2.443695e-01 -1.901719e+00 123 70 4
4.583537e-02 -2.387523e-01 -1.837125e+00 146 109 60
-1.944510e-01 -2.376171e-01 -1.839026e+00 78 12 0
-2.045114e-01 -2.366112e-01 -1.833137e+00 83 24 1
-2.045367e-01 -2.366554e-01 -1.832415e+00 83 24 1
2.088274e-01 -2.347737e-01 -1.806298e+00 40 34 22
-7.237926e-02 -2.212889e-01 -1.822431e+00 161 65 31
-7.240096e-02 -2.213611e-01 -1.822652e+00 161 65 31
-3.575018e-01 -2.192757e-01 -1.883556e+00 157 109 33
-1.421884e-02 -2.204110e-01 -1.820587e+00 161 67 39
-1.456030e-01 -2.179210e-01 -1.826226e+00 179 90 53
-1.455346e-01 -2.179776e-01 -1.826437e+00 179 90 53
-9.589295e-02 -2.134794e-01 -1.820517e+00 165 72 38
-2.699298e-01 -2.003560e-01 -1.875186e+00 114 54 0
-3.648459e-01 -2.022810e-01 -1.895385e+00 163 119 41
-3.648886e-01 -2.022450e-01 -1.895245e+00 163 119 41
-2.187494e-01 -2.010094e-01 -1.840938e+00 151 103 25
-3.912409e-01 -1.952040e-01 -1.899990e+00 127 56 12
-9.967149e-02 -1.947776e-01 -1.814428e+00 174 121 76
-3.021101e-01 -1.867744e-01 -1.853179e+00 101 60 3
-3.027591e-01 -1.792975e-01 -1.855896e+00 155 105 25
-3.478464e-01 -1.789981e-01 -1.869346e+00 164 117 36
-3.256553e-01 -1.723739e-01 -1.872076e+00 148 100 21
2.367181e-02 -1.716648e-01 -1.839430e+00 163 78 41
-1.172167e-01 -1.744997e-01 -1.816406e+00 152 97 21
-5.352391e-02 -1.695705e-01 -1.816451e+00 84 29 5
-5.352391e-02 -1.695705e-01 -1.816451e+00 84 29 5
-7.746813e-02 -1.668321e-01 -1.832224e+00 148 88 22
-5.690141e-02 -1.616160e-01 -1.830547e+00 140 79 13
-3.132830e-01 -1.598568e-01 -1.866641e+00 159 107 24
-5.159246e-02 -1.609019e-01 -1.818246e+00 136 77 17
-5.239966e-02 -1.611602e-01 -1.815548e+00 136 77 17
-4.206880e-02 -1.587217e-01 -1.809002e+00 143 83 13
-4.214351e-02 -1.587724e-01 -1.808754e+00 143 83 13
-3.309581e-01 -1.562533e-01 -1.860083e+00 159 110 29
-3.626788e-02 -1.490124e-01 -1.834121e+00 81 18 5
-3.992579e-02 -1.508633e-01 -1.816829e+00 81 18 5
-1.034469e-02 -1.468608e-01 -1.841010e+00 144 85 25
2.106724e-03 -1.472993e-01 -1.819698e+00 78 17 0
2.106724e-03 -1.472993e-01 -1.819698e+00 78 17 0
-7.396585e-03 -1.455215e-01 -1.814411e+00 132 73 14
-7.396585e-03 -1.455215e-01 -1.814411e+00 132 73 14
-3.504203e-01 -1.429803e-01 -1.863059e+00 120 79 5
-1.399333e-02 -1.405337e-01 -1.838446e+00 75 19 4
1.514930e-03 -1.412102e-01 -1.818987e+00 136 75 19
1.602061e-03 -1.410461e-01 -1.819619e+00 136 75 19
-3.586147e-01 -1.323213e-01 -1.865099e+00 157 106 32
-9.434643e-02 -1.335230e-01 -1.810134e+00 147 86 19
-7.903613e-02 -1.297696e-01 -1.809767e+00 142 83 7
-7.875899e-02 -1.295519e-01 -1.811047e+00 142 83 7
-1.851268e-01 -1.309062e-01 -1.812605e+00 185 117 62
-3.042262e-01 -1.267965e-01 -1.838431e+00 90 39 0
-3.455087e-01 -1.216725e-01 -1.857799e+00 160 112 36
-3.220516e-01 -1.211572e-01 -1.844417e+00 93 45 0
-3.218659e-01 -1.228914e-01 -1.843783e+00 93 45 0
-3.534179e-01 -1.188431e-01 -1.862977e+00 164 117 40
-3.529417e-01 -1.194913e-01 -1.860182e+00 164 117 40
-1.996084e-01 -1.198148e-01 -1.823129e+00 65 0 1
-1.996084e-01 -1.198148e-01 -1.823129e+00 65 0 1
-2.240783e-01 -1.086224e-01 -1.812953e+00 173 121 49
-2.689872e-01 -1.006385e-01 -1.819874e+00 144 43 9
-2.794502e-01 -9.716342e-02 -1.833923e+00 144 44 10
-1.703297e-02 -9.770993e-02 -1.797125e+00 151 98 23
1.458286e-03 -8.913328e-02 -1.812410e+00 157 103 34
-3.477468e-01 -8.761079e-02 -1.854539e+00 178 134 74
-3.528785e-01 -8.464583e-02 -1.849459e+00 180 133 66
-3.587244e-01 -8.153100e-02 -1.873095e+00 180 133 66
-3.394692e-01 -8.574236e-02 -1.845380e+00 147 49 17
-3.666812e-01 -8.181544e-02 -1.856625e+00 180 129 69
-3.578614e-01 -7.868192e-02 -1.856808e+00 147 50 15
-3.654814e-01 -7.611662e-02 -1.857607e+00 148 57 15
-3.731191e-01 -7.258808e-02 -1.857678e+00 146 61 16
-3.731191e-01 -7.258808e-02 -1.857678e+00 146 61 16
-1.301661e-01 -7.358202e-02 -1.796379e+00 170 119 42
-1.213885e-01 -7.260356e-02 -1.796001e+00 176 126 57
-1.019524e-01 -6.780834e-02 -1.800829e+00 177 130 68
2.423070e-03 -3.767922e-02 -1.791300e+00 177 124 61
3.796246e-02 3.351832e-02 -1.804349e+00 134 23 0
-4.279561e-01 9.107860e-02 -1.906301e+00 222 197 160
-1.262623e-01 1.755269e-01 -1.823548e+00 60 47 65
-7.739814e-02 1.717319e-01 -1.804094e+00 55 40 56
-1.028956e-01 1.870831e-01 -1.831972e+00 57 44 63
-1.322068e-01 1.885637e-01 -1.832611e+00 56 44 63
-5.062393e-02 1.805023e-01 -1.808119e+00 53 36 42
-5.066139e-02 1.797524e-01 -1.806367e+00 53 36 42
-4.866851e-02 1.875768e-01 -1.819438e+00 53 36 42
-1.055418e-01 1.789414e-01 -1.808542e+00 119 105 97
-1.055418e-01 1.789414e-01 -1.808542e+00 119 105 97
1.819724e-02 1.794017e-01 -1.789362e+00 121 106 108
-1.519680e-01 1.984398e-01 -1.842182e+00 114 100 99
-1.527433e-01 1.906309e-01 -1.828720e+00 114 100 99
3.157083e-02 1.874615e-01 -1.801107e+00 34 20 28
3.123241e-02 1.857144e-01 -1.797154e+00 34 20 28
-3.910356e-01 2.462138e-01 -1.905694e+00 100 86 91
2.696043e-01 -7.498348e-01 -1.712359e+00 103 87 60
5.345576e-01 -7.447447e-01 -1.703861e+00 39 33 10
2.556959e-01 -6.987964e-01 -1.699036e+00 44 44 34
6.446808e-01 -7.169574e-01 -1.697267e+00 32 29 0
-3.712607e-01 -7.116660e-01 -1.839287e+00 133 154 99
-3.686081e-01 -7.053467e-01 -1.830488e+00 133 154 99
-3.424077e-01 -6.887454e-01 -1.822489e+00 64 92 44
-3.369084e-01 -6.936681e-01 -1.830936e+00 58 77 29
-4.081707e-01 -6.901718e-01 -1.839728e+00 215 227 165
-3.943016e-01 -6.868210e-01 -1.834801e+00 24 106 19
-3.945190e-01 -6.786201e-01 -1.823153e+00 158 219 137
-3.922080e-01 -6.830742e-01 -1.835439e+00 74 161 68
2.587809e-01 -6.362993e-01 -1.689121e+00 69 68 51
2.590423e-01 -6.363816e-01 -1.689366e+00 69 68 51
-2.951889e-01 -6.860253e-01 -1.843157e+00 62 78 20
-2.951889e-01 -6.860253e-01 -1.843157e+00 62 78 20
2.794670e-01 -6.393367e-01 -1.710996e+00 34 31 16
2.881353e-01 -6.280498e-01 -1.694155e+00 84 81 74
2.627173e-01 -6.206570e-01 -1.688451e+00 98 94 67
3.038671e-01 -5.710090e-01 -1.681170e+00 72 70 58
3.030079e-01 -5.703306e-01 -1.680124e+00 72 70 58
-1.977841e-01 -5.908106e-01 -1.793196e+00 63 83 15
2.654535e-01 -5.587537e-01 -1.698688e+00 88 86 73
2.362458e-01 -5.512534e-01 -1.700783e+00 22 19 10
2.433867e-01 -5.550494e-01 -1.714179e+00 78 75 59
-1.421351e-01 -5.371010e-01 -1.734324e+00 136 223 128
-1.370884e-01 -5.753370e-01 -1.810174e+00 136 223 128
2.294167e-01 -5.504503e-01 -1.714853e+00 64 62 47
2.268510e-01 -5.530945e-01 -1.723372e+00 77 75 62
-1.128418e-01 -5.651199e-01 -1.801399e+00 46 93 40
1.880280e-01 -5.476951e-01 -1.739043e+00 15 13 2
-1.404517e-01 -5.528456e-01 -1.801270e+00 205 195 160
6.200966e-01 -5.152400e-01 -1.663953e+00 70 63 53
4.407124e-02 -5.303238e-01 -1.785048e+00 52 73 11
-4.645479e-02 -5.288930e-01 -1.795737e+00 53 144 46
-4.221863e-02 -5.200905e-01 -1.784231e+00 97 170 81
-4.114490e-02 -5.170481e-01 -1.794706e+00 206 222 179
7.170888e-02 -5.156742e-01 -1.777085e+00 36 47 5
7.088135e-02 -5.146390e-01 -1.774702e+00 36 47 5
-3.275490e-02 -5.142431e-01 -1.797830e+00 58 87 35
2.189931e-01 -4.956200e-01 -1.730137e+00 51 48 41
3.041426e-02 -5.007105e-01 -1.777593e+00 61 75 14
-8.184067e-03 -4.955814e-01 -1.779187e+00 54 96 44
7.220890e-03 -4.965251e-01 -1.783543e+00 23 67 14
1.159022e-01 -4.946026e-01 -1.768235e+00 15 31 1
1.016538e-02 -4.907130e-01 -1.782959e+00 50 94 30
5.050468e-02 -4.782328e-01 -1.795803e+00 109 99 52
1.172416e-01 -4.654694e-01 -1.770788e+00 52 98 35
1.207706e-01 -4.600164e-01 -1.762647e+00 59 77 20
9.479694e-02 -4.538150e-01 -1.763328e+00 27 75 19
5.874050e-01 -4.532799e-01 -1.700646e+00 211 196 157
1.232200e-01 -4.476853e-01 -1.754870e+00 93 176 76
1.035055e-01 -4.425637e-01 -1.743741e+00 18 74 1
1.714208e-01 -4.487496e-01 -1.759322e+00 41 85 17
-2.426324e-01 -4.656474e-01 -1.880794e+00 183 118 71
-2.567124e-01 -4.629441e-01 -1.879502e+00 182 122 74
1.389746e-01 -4.331327e-01 -1.755044e+00 24 76 22
-2.130422e-01 -4.557451e-01 -1.880172e+00 92 24 1
-1.963807e-01 -4.533583e-01 -1.875737e+00 96 30 0
-9.657913e-02 -4.520277e-01 -1.868168e+00 95 3 0
1.588963e-01 -4.231278e-01 -1.744210e+00 14 79 3
-2.367493e-01 -4.502715e-01 -1.888741e+00 157 96 39
-2.369932e-01 -4.489977e-01 -1.884211e+00 157 96 39
-3.231206e-01 -4.483131e-01 -1.900380e+00 186 125 77
3.968727e-02 -4.514617e-01 -1.881038e+00 81 34 6
2.110139e-01 -4.198191e-01 -1.748408e+00 64 82 19
2.109986e-01 -4.198870e-01 -1.748449e+00 64 82 19
-6.799346e-02 -4.389905e-01 -1.857486e+00 92 1 3
-7.948889e-02 -4.373067e-01 -1.853696e+00 140 41 28
-6.770211e-02 -4.435859e-01 -1.884987e+00 142 45 27
-6.731915e-02 -4.439940e-01 -1.884990e+00 142 45 27
2.091774e-01 -4.087701e-01 -1.741328e+00 187 188 115
-2.296101e-01 -4.241297e-01 -1.878012e+00 97 30 2
-1.839019e-01 -4.195575e-01 -1.865493e+00 115 48 0
-2.306446e-01 -4.181508e-01 -1.871931e+00 101 32 2
2.153544e-01 -4.001531e-01 -1.743577e+00 202 189 129
2.163725e-01 -4.004289e-01 -1.744760e+00 202 189 129
-2.429670e-01 -4.158135e-01 -1.882742e+00 154 88 20
-3.535295e-01 -4.177997e-01 -1.915510e+00 116 57 2
5.305389e-01 -4.008432e-01 -1.730636e+00 53 44 10
-3.138509e-01 -4.135580e-01 -1.897061e+00 161 95 32
-1.849869e-01 -4.065844e-01 -1.867406e+00 116 46 0
-1.850454e-01 -4.065064e-01 -1.867346e+00 116 46 0
5.180561e-01 -3.933034e-01 -1.719948e+00 209 194 150
-2.309231e-01 -4.043581e-01 -1.868064e+00 80 12 0
-2.310009e-01 -4.043803e-01 -1.867703e+00 80 12 0
-1.976989e-01 -4.009876e-01 -1.861976e+00 151 86 28
-1.977077e-01 -4.015910e-01 -1.864266e+00 151 86 28
-3.161464e-01 -3.998469e-01 -1.894440e+00 154 92 28
-3.560141e-01 -4.022329e-01 -1.917694e+00 121 61 5
-2.320437e-01 -3.947253e-01 -1.872357e+00 83 18 2
-2.315862e-01 -3.933585e-01 -1.866170e+00 83 18 2
-1.858407e-01 -3.912996e-01 -1.858897e+00 122 50 0
3.013172e-01 -3.780186e-01 -1.740117e+00 51 42 14
-5.367290e-02 -3.900514e-01 -1.845009e+00 92 2 1
3.095211e-01 -3.748293e-01 -1.730359e+00 122 116 96
3.027670e-01 -3.728736e-01 -1.722137e+00 122 116 96
3.118782e-01 -3.772333e-01 -1.744961e+00 38 31 6
-1.983864e-01 -3.874997e-01 -1.862465e+00 153 87 28
-3.402289e-01 -3.903791e-01 -1.900513e+00 162 101 36
3.107405e-01 -3.789643e-01 -1.757139e+00 80 75 55
3.078558e-01 -3.779011e-01 -1.753891e+00 80 75 55
3.183404e-01 -3.749704e-01 -1.744499e+00 29 22 5
-2.174796e-01 -3.837576e-01 -1.861580e+00 80 14 1
-3.578368e-01 -3.875245e-01 -1.903785e+00 180 117 62
-3.575364e-01 -3.875442e-01 -1.902321e+00 180 117 62
-1.949772e-01 -3.827803e-01 -1.860297e+00 94 23 3
-1.950689e-01 -3.822617e-01 -1.858690e+00 94 23 3
-3.486151e-01 -3.857117e-01 -1.901608e+00 156 103 36
-3.095580e-01 -3.800687e-01 -1.885683e+00 99 37 0
-1.992602e-01 -3.762666e-01 -1.871917e+00 145 79 23
-3.256959e-01 -3.765139e-01 -1.895108e+00 98 36 0
-3.250599e-01 -3.756271e-01 -1.891617e+00 98 36 0
-2.187638e-01 -3.712532e-01 -1.868841e+00 81 11 1
-3.561141e-01 -3.722389e-01 -1.905623e+00 114 56 1
-3.228828e-01 -3.702610e-01 -1.890086e+00 160 97 30
-3.523911e-01 -3.698478e-01 -1.903996e+00 161 102 43
-2.409875e-01 -3.629460e-01 -1.862599e+00 158 97 35
-2.409875e-01 -3.629460e-01 -1.862599e+00 158 97 35
-3.340896e-01 -3.666856e-01 -1.896488e+00 162 100 32
-2.468899e-01 -3.603812e-01 -1.863757e+00 109 35 6
-2.468899e-01 -3.603812e-01 -1.863757e+00 109 35 6
-3.422031e-01 -3.643402e-01 -1.902301e+00 159 101 36
-2.004510e-01 -3.587784e-01 -1.858119e+00 147 83 20
-2.390690e-01 -3.475727e-01 -1.864100e+00 105 39 3
-4.792018e-02 -3.452659e-01 -1.844712e+00 88 0 0
-3.146006e-01 -3.458565e-01 -1.884114e+00 157 91 23
-8.725955e-02 -3.430467e-01 -1.839983e+00 79 1 0
-3.348752e-01 -3.449282e-01 -1.895218e+00 108 52 1
-3.347419e-01 -3.448516e-01 -1.894613e+00 108 52 1
-6.699107e-02 -3.419063e-01 -1.841229e+00 139 40 18
-1.727691e-01 -3.389999e-01 -1.848911e+00 127 42 4
4.035036e-02 -3.443696e-01 -1.859196e+00 131 77 60
-3.453619e-01 -3.401461e-01 -1.897201e+00 105 49 1
-3.457100e-01 -3.403252e-01 -1.898184e+00 105 49 1
-3.335428e-01 -3.376074e-01 -1.886847e+00 162 96 28
-2.433690e-01 -3.345897e-01 -1.861471e+00 161 98 43
-2.433726e-01 -3.346595e-01 -1.861754e+00 161 98 43
-3.528258e-01 -3.375606e-01 -1.900154e+00 109 53 4
-1.161817e-01 -3.331382e-01 -1.841864e+00 85 3 0
-1.161817e-01 -3.331382e-01 -1.841864e+00 85 3 0
-3.587212e-01 -3.319012e-01 -1.901116e+00 111 52 4
-3.512090e-01 -3.312757e-01 -1.895395e+00 166 108 38
4.207090e-01 -3.238723e-01 -1.742558e+00 87 87 69
-1.303371e-02 -3.322893e-01 -1.879081e+00 132 38 22
-1.343928e-01 -3.237137e-01 -1.845038e+00 126 31 1
-2.401427e-01 -3.221798e-01 -1.859555e+00 83 17 0
-2.401427e-01 -3.221798e-01 -1.859555e+00 83 17 0
-2.498180e-01 -3.227679e-01 -1.867027e+00 98 34 6
-1.303510e-01 -3.204633e-01 -1.843345e+00 183 98 61
-1.638738e-01 -3.211798e-01 -1.851674e+00 138 40 5
-2.446624e-01 -3.200967e-01 -1.857801e+00 160 100 37
-2.447776e-01 -3.202348e-01 -1.858949e+00 160 100 37
-2.590480e-01 -3.196057e-01 -1.862542e+00 162 96 27
-2.025027e-01 -3.155219e-01 -1.843300e+00 151 91 20
-2.024303e-01 -3.159587e-01 -1.846964e+00 151 91 20
-4.633052e-02 -3.168241e-01 -1.834364e+00 76 0 0
-8.693533e-03 -3.181624e-01 -1.848284e+00 88 0 2
-8.681282e-03 -3.182216e-01 -1.848409e+00 88 0 2
-2.055082e-01 -3.091628e-01 -1.849129e+00 81 18 0
-2.052833e-01 -3.102874e-01 -1.856933e+00 81 18 0
-2.506124e-01 -3.092955e-01 -1.867889e+00 101 37 3
5.607515e-02 -3.143608e-01 -1.869132e+00 140 119 74
-2.541562e-01 -3.075308e-01 -1.857786e+00 158 94 23
-2.457503e-01 -3.066564e-01 -1.863085e+00 164 106 34
-2.506290e-01 -3.032552e-01 -1.852004e+00 107 41 1
-2.509921e-01 -3.036311e-01 -1.857281e+00 107 41 1
-2.026118e-01 -3.008964e-01 -1.840247e+00 153 96 25
-3.639949e-01 -3.028403e-01 -1.893311e+00 187 120 64
-3.637798e-01 -3.027874e-01 -1.892142e+00 187 120 64
-2.229562e-01 -2.987895e-01 -1.853217e+00 83 21 1
-6.740954e-02 -2.973235e-01 -1.820186e+00 68 1 2
1.211864e-02 -2.981060e-01 -1.833498e+00 92 2 0
1.447904e-02 -2.985883e-01 -1.842126e+00 92 2 0
-9.225602e-02 -2.956204e-01 -1.830641e+00 77 0 1
-2.096893e-01 -2.933946e-01 -1.846735e+00 158 99 27
-2.140149e-01 -2.925409e-01 -1.847924e+00 114 51 0
4.114525e-01 -2.952258e-01 -1.775043e+00 65 58 42
-1.909100e-01 -2.925404e-01 -1.853297e+00 120 54 0
-6.216302e-02 -2.895516e-01 -1.835807e+00 78 0 0
-7.230194e-02 -2.898789e-01 -1.837597e+00 76 0 0
-1.022554e-01 -2.854226e-01 -1.828449e+00 140 52 27
-1.017184e-01 -2.857069e-01 -1.831987e+00 140 52 27
1.024729e-01 -2.873893e-01 -1.831426e+00 45 35 25
4.188549e-01 -2.858559e-01 -1.779243e+00 213 199 157
-7.308056e-02 -2.841341e-01 -1.833153e+00 86 0 0
-3.824211e-01 -2.846086e-01 -1.900059e+00 128 61 16
-3.644964e-02 -2.830292e-01 -1.831958e+00 135 47 31
4.245471e-01 -2.852759e-01 -1.792655e+00 47 35 14
5.027388e-02 -2.824837e-01 -1.847918e+00 154 130 85
-6.299030e-02 -2.780776e-01 -1.824940e+00 141 41 27
4.254092e-01 -2.799134e-01 -1.795121e+00 215 200 151
4.115461e-01 -2.785108e-01 -1.786478e+00 58 47 22
-6.627498e-02 -2.735354e-01 -1.840379e+00 67 0 3
-8.630954e-02 -2.731039e-01 -1.832660e+00 88 5 2
4.295246e-01 -2.758379e-01 -1.810886e+00 45 34 14
-3.843165e-01 -2.729489e-01 -1.905516e+00 133 63 21
-3.125293e-01 -2.674456e-01 -1.889162e+00 169 111 40
-5.753425e-03 -2.594353e-01 -1.837042e+00 131 41 28
6.278113e-03 -2.611943e-01 -1.879206e+00 131 41 28
-1.933899e-01 -2.577760e-01 -1.840582e+00 74 14 2
-1.934124e-01 -2.575328e-01 -1.836972e+00 74 14 2
4.275274e-01 -2.602101e-01 -1.824346e+00 219 205 159
-1.893505e-01 -2.561252e-01 -1.836422e+00 164 114 32
4.104523e-01 -2.580987e-01 -1.824975e+00 59 48 31
-1.993813e-01 -2.528552e-01 -1.839180e+00 169 122 55
5.732026e-03 -2.534846e-01 -1.838784e+00 130 36 24
5.732026e-03 -2.534846e-01 -1.838784e+00 130 36 24
-2.077578e-01 -2.525822e-01 -1.848851e+00 165 117 52
-2.077022e-01 -2.525205e-01 -1.844215e+00 165 117 52
-6.754091e-02 -2.504578e-01 -1.814306e+00 155 62 31
-6.554623e-02 -2.507419e-01 -1.824286e+00 155 62 31
-2.135817e-01 -2.493087e-01 -1.840813e+00 99 42 3
-1.193135e-01 -2.478558e-01 -1.817487e+00 174 78 42
-1.193135e-01 -2.478558e-01 -1.817487e+00 174 78 42
-1.941659e-01 -2.430602e-01 -1.842779e+00 72 3 0
-2.094256e-01 -2.378799e-01 -1.842223e+00 168 112 51
-2.093505e-01 -2.379656e-01 -1.839588e+00 168 112 51
-2.729830e-02 -2.383167e-01 -1.825664e+00 156 59 34
-2.138634e-01 -2.354647e-01 -1.844340e+00 92 27 7
1.903625e-01 -2.364643e-01 -1.795977e+00 218 204 177
-3.920968e-01 -2.304000e-01 -1.905102e+00 138 76 32
-1.945891e-01 -2.281770e-01 -1.834782e+00 72 14 2
-1.945496e-01 -2.283378e-01 -1.832070e+00 72 14 2
-3.546648e-01 -2.244841e-01 -1.910769e+00 161 112 41
-2.104522e-01 -2.228076e-01 -1.838534e+00 165 116 46
-2.104522e-01 -2.228076e-01 -1.838534e+00 165 116 46
-2.410833e-01 -2.226052e-01 -1.845243e+00 83 39 0
-8.901576e-02 -2.197162e-01 -1.819628e+00 128 29 0
-2.929838e-01 -2.164082e-01 -1.870174e+00 92 47 0
-1.153143e-01 -2.154110e-01 -1.827870e+00 135 37 2
-3.963987e-03 -2.152092e-01 -1.816675e+00 155 55 32
-1.948216e-01 -2.135757e-01 -1.838113e+00 101 33 1
-1.251458e-01 -2.125439e-01 -1.816427e+00 144 41 6
-2.142103e-01 -2.097161e-01 -1.835847e+00 96 33 1
1.608991e-02 -2.095483e-01 -1.824236e+00 125 25 0
-2.102670e-01 -2.086250e-01 -1.834360e+00 158 101 28
-8.995124e-02 -2.092368e-01 -1.813689e+00 179 78 46
-3.208763e-01 -2.058662e-01 -1.863170e+00 108 56 6
-3.197183e-01 -2.061200e-01 -1.857061e+00 108 56 6
-3.945707e-01 -2.045204e-01 -1.902382e+00 135 73 26
2.665932e-01 -2.053695e-01 -1.811524e+00 217 204 179
-2.222466e-01 -2.060410e-01 -1.843483e+00 115 56 2
-3.666449e-01 -2.030960e-01 -1.875584e+00 122 73 3
-3.340601e-01 -2.020821e-01 -1.865116e+00 104 57 5
-1.955688e-01 -1.992613e-01 -1.832057e+00 70 12 0
-1.956443e-01 -1.991433e-01 -1.832699e+00 70 12 0
-5.794368e-03 -1.978436e-01 -1.818240e+00 154 56 32
-1.044993e-01 -1.988076e-01 -1.813369e+00 135 39 7
-1.337496e-01 -1.981434e-01 -1.828113e+00 175 111 58
3.863573e-02 -1.972077e-01 -1.825406e+00 178 115 72
-3.035457e-02 -1.951388e-01 -1.805771e+00 160 69 40
-2.758753e-02 -1.945502e-01 -1.817043e+00 160 69 40
-3.729213e-01 -1.919304e-01 -1.880399e+00 186 132 74
-3.729213e-01 -1.919304e-01 -1.880399e+00 186 132 74
-2.069628e-01 -1.914232e-01 -1.832563e+00 93 37 2
-2.071464e-01 -1.915774e-01 -1.830881e+00 93 37 2
-3.065071e-01 -1.898474e-01 -1.851995e+00 155 111 41
-1.545580e-01 -1.908660e-01 -1.819350e+00 189 119 57
-3.926015e-01 -1.853885e-01 -1.884611e+00 170 107 61
-1.102198e-01 -1.857461e-01 -1.819841e+00 150 87 18
2.317465e-03 -1.831826e-01 -1.827401e+00 158 65 40
4.160144e-02 -1.798129e-01 -1.833042e+00 187 125 81
-1.088148e-01 -1.808603e-01 -1.818421e+00 74 14 11
-1.247248e-01 -1.814233e-01 -1.814924e+00 154 99 35
-1.045257e-01 -1.795737e-01 -1.815868e+00 157 99 26
-7.306108e-02 -1.783782e-01 -1.817767e+00 142 83 29
-7.306108e-02 -1.783782e-01 -1.817767e+00 142 83 29
-9.908836e-02 -1.780603e-01 -1.815373e+00 88 15 1
-9.948160e-02 -1.783574e-01 -1.812481e+00 88 15 1
-9.013424e-02 -1.771076e-01 -1.809479e+00 72 12 1
-3.430779e-01 -1.745664e-01 -1.864161e+00 104 63 9
-2.777559e-01 -1.742971e-01 -1.845692e+00 112 55 3
-3.192369e-01 -1.711662e-01 -1.859733e+00 103 47 1
-1.123326e-01 -1.731335e-01 -1.813094e+00 149 91 25
-1.248728e-01 -1.682191e-01 -1.817544e+00 163 108 51
-1.248326e-01 -1.683327e-01 -1.817987e+00 163 108 51
-2.031607e-01 -1.642345e-01 -1.832315e+00 165 113 33
-2.030955e-01 -1.646112e-01 -1.829340e+00 165 113 33
-7.646384e-02 -1.649187e-01 -1.809602e+00 76 14 1
-9.904728e-02 -1.644472e-01 -1.813572e+00 94 16 0
-9.895214e-02 -1.643165e-01 -1.814204e+00 94 16 0
-9.400195e-02 -1.637316e-01 -1.814337e+00 154 92 31
-2.114840e-01 -1.635192e-01 -1.828872e+00 167 113 36
-2.116600e-01 -1.634272e-01 -1.831505e+00 167 113 36
1.283944e-02 -1.597032e-01 -1.822770e+00 127 28 0
-3.447825e-01 -1.590559e-01 -1.861570e+00 120 65 1
-3.440822e-01 -1.590497e-01 -1.857905e+00 120 65 1
-3.166500e-01 -1.600136e-01 -1.839359e+00 167 116 36
-1.191394e-02 -1.525484e-01 -1.846428e+00 84 24 2
-1.189774e-02 -1.530170e-01 -1.844963e+00 84 24 2
-1.974093e-01 -1.544830e-01 -1.826790e+00 73 4 0
-1.973696e-01 -1.550572e-01 -1.821955e+00 73 4 0
-3.651301e-02 -1.518562e-01 -1.811169e+00 152 90 37
-3.422360e-01 -1.491767e-01 -1.867441e+00 118 71 0
-3.208394e-02 -1.501252e-01 -1.811291e+00 88 25 0
-2.082342e-01 -1.424456e-01 -1.821213e+00 163 106 30
-2.176139e-01 -1.417240e-01 -1.827133e+00 155 104 23
1.958781e-02 -1.335140e-01 -1.840729e+00 159 102 43
-2.058072e-01 -1.376405e-01 -1.819360e+00 85 33 0
-2.182834e-01 -1.366060e-01 -1.820613e+00 68 9 1
-2.225833e-01 -1.360059e-01 -1.822890e+00 167 117 44
2.668334e-02 -1.310705e-01 -1.821961e+00 105 53 1
2.142582e-03 -1.331732e-01 -1.814248e+00 89 28 1
-2.686360e-01 -1.330908e-01 -1.841946e+00 91 34 4
-1.185568e-01 -1.359779e-01 -1.802589e+00 150 92 25
-2.159977e-01 -1.305540e-01 -1.826563e+00 154 98 29
-3.140260e-01 -1.276453e-01 -1.853184e+00 93 41 0
-3.164928e-01 -1.291547e-01 -1.845015e+00 158 105 34
-1.816477e-01 -1.264813e-01 -1.816946e+00 133 39 2
-3.781846e-01 -1.168355e-01 -1.868887e+00 177 117 53
-3.781846e-01 -1.168355e-01 -1.868887e+00 177 117 53
-3.599236e-01 -1.148951e-01 -1.872647e+00 153 109 36
-3.968528e-01 -1.118225e-01 -1.882037e+00 133 68 23
-1.517530e-02 -1.114550e-01 -1.800721e+00 153 100 32
-1.353190e-02 -1.099430e-01 -1.807582e+00 153 100 32
-1.884323e-01 -1.090119e-01 -1.812936e+00 175 97 39
-3.801486e-01 -1.014989e-01 -1.874061e+00 179 119 57
-3.819473e-01 -1.005902e-01 -1.881882e+00 179 119 57
-2.621150e-01 -1.029406e-01 -1.834675e+00 175 116 48
-2.643585e-01 -1.062093e-01 -1.816170e+00 172 117 50
-2.801431e-01 -1.036248e-01 -1.827534e+00 174 120 51
-2.282226e-01 -1.016753e-01 -1.828588e+00 139 36 0
-9.802950e-02 -1.017593e-01 -1.797504e+00 145 90 17
-1.457196e-01 -9.664972e-02 -1.806486e+00 75 11 1
1.535850e-02 -9.017751e-02 -1.808324e+00 108 54 1
-5.930889e-02 -8.799964e-02 -1.811839e+00 150 92 37
-1.592033e-01 -9.079034e-02 -1.805911e+00 181 118 53
-6.426715e-02 -8.599696e-02 -1.802016e+00 66 9 4
-4.819648e-02 -8.158510e-02 -1.813389e+00 152 104 45
-1.505316e-01 -8.737449e-02 -1.799416e+00 63 2 0
-1.172848e-01 -8.113251e-02 -1.808078e+00 69 7 0
-1.314481e-01 -7.975117e-02 -1.810413e+00 157 103 36
-1.328367e-01 -8.314933e-02 -1.797658e+00 157 103 36
-1.232148e-01 -7.993609e-02 -1.796022e+00 158 104 44
-1.170592e-01 -7.573158e-02 -1.804176e+00 82 29 2
-1.171773e-01 -7.622348e-02 -1.802293e+00 82 29 2
1.985066e-02 -6.690161e-02 -1.801011e+00 128 71 5
-4.120697e-02 -5.335816e-02 -1.798717e+00 178 126 61
-3.089276e-02 -5.037249e-02 -1.796309e+00 173 119 57
-3.816641e-01 -4.297462e-02 -1.858776e+00 180 104 65
-3.817953e-01 -4.294431e-02 -1.859204e+00 180 104 65
3.719129e-02 -2.296554e-02 -1.802627e+00 183 119 75
-1.467001e-01 -1.713028e-02 -1.806307e+00 159 51 5
-1.439076e-01 -4.296492e-03 -1.832151e+00 253 188 140
-1.413179e-01 5.910050e-03 -1.829424e+00 206 115 71
-1.665979e-01 1.851509e-02 -1.793619e+00 56 54 68
-1.665979e-01 1.851509e-02 -1.793619e+00 56 54 68
-1.532083e-01 2.491874e-02 -1.806949e+00 121 116 123
-1.528270e-01 2.618178e-02 -1.809720e+00 121 116 123
-1.439082e-01 1.925751e-02 -1.788035e+00 184 177 184
-1.437306e-01 1.989406e-02 -1.789690e+00 184 177 184
-2.864197e-01 3.150943e-02 -1.834073e+00 71 68 82
2.464332e-02 5.955711e-02 -1.808135e+00 150 70 42
1.740190e-02 5.752086e-02 -1.802989e+00 70 3 0
2.807826e-02 7.021088e-02 -1.802491e+00 101 72 61
-2.093135e-01 -1.173282e-01 -1.353491e+00 46 45 59
-1.549028e-01 -7.425229e-02 -1.425989e+00 45 43 57
-9.943782e-02 1.705484e-01 -1.811401e+00 56 43 58
-1.728513e-01 1.842257e-01 -1.843424e+00 60 49 64
-1.887410e-01 1.748842e-01 -1.829033e+00 56 42 62
-1.206113e-01 1.698774e-01 -1.804062e+00 59 45 61
-2.866563e-01 1.950868e-01 -1.861356e+00 107 97 106
-7.320374e-02 1.914071e-01 -1.826387e+00 124 112 116
-7.412084e-02 1.867273e-01 -1.818461e+00 124 112 116
-2.919964e-01 2.068360e-01 -1.875308e+00 58 45 65
-5.480410e-02 1.874479e-01 -1.815086e+00 61 44 54
-5.480410e-02 1.874479e-01 -1.815086e+00 61 44 54
-4.272056e-01 1.960466e-01 -1.870084e+00 205 187 151
-1.608955e-01 2.022949e-01 -1.847164e+00 115 102 104
-1.605816e-01 2.000523e-01 -1.843197e+00 115 102 104
-3.429150e-01 2.012599e-01 -1.862331e+00 65 47 52
-3.111888e-01 2.140822e-01 -1.876573e+00 58 44 61
-3.114864e-01 2.147001e-01 -1.877675e+00 58 44 61
-3.227033e-01 2.105159e-01 -1.866224e+00 58 45 65
3.875584e-02 1.896367e-01 -1.790007e+00 215 197 159
3.533934e-02 2.119520e-01 -1.814903e+00 63 48 43
3.662010e-02 2.139035e-01 -1.817481e+00 63 48 43
-3.259584e-01 2.427657e-01 -1.864595e+00 32 23 47
-2.989367e-01 2.554484e-01 -1.871549e+00 28 24 43
-2.206137e-01 2.815682e-01 -1.889107e+00 46 34 35
-2.206621e-01 2.687625e-01 -1.865464e+00 172 158 154
1.230420e+00 5.295568e-01 -1.925176e+00 58 52 32
-3.920150e-01 -6.974141e-01 -1.818136e+00 158 163 122
-3.432362e-01 -6.795602e-01 -1.813328e+00 156 177 130
-4.097874e-01 -6.874558e-01 -1.833681e+00 154 144 99
-3.223788e-01 -6.791369e-01 -1.834174e+00 45 116 47
-3.853032e-01 -6.741386e-01 -1.840031e+00 147 173 90
-2.803900e-01 -6.699979e-01 -1.823749e+00 150 156 92
-3.524119e-01 -6.774737e-01 -1.851985e+00 62 154 68
2.881816e-01 -6.216937e-01 -1.694673e+00 76 73 59
2.940863e-01 -6.187452e-01 -1.695789e+00 69 66 49
2.949856e-01 -5.685822e-01 -1.681168e+00 65 64 50
3.028049e-01 -5.737681e-01 -1.690060e+00 65 64 50
-1.960678e-01 -6.005352e-01 -1.817646e+00 201 232 147
2.446719e-01 -5.472721e-01 -1.675334e+00 33 31 19
2.422999e-01 -5.519018e-01 -1.703925e+00 88 86 73
6.473439e-01 -5.400615e-01 -1.658956e+00 135 126 76
1.846389e-01 -5.485395e-01 -1.739868e+00 68 66 53
-5.647566e-02 -5.497946e-01 -1.795063e+00 59 106 43
-9.984319e-02 -5.420961e-01 -1.804204e+00 59 93 52
-3.228207e-02 -5.316847e-01 -1.783461e+00 126 209 117
-9.388667e-02 -5.371285e-01 -1.804229e+00 201 195 166
3.960192e-02 -5.380151e-01 -1.793208e+00 137 137 79
-4.734374e-02 -5.326066e-01 -1.795707e+00 15 120 17
-7.709120e-02 -5.335373e-01 -1.804163e+00 65 96 49
5.023358e-01 -4.736842e-01 -1.654700e+00 75 71 59
4.712500e-04 -4.984228e-01 -1.788044e+00 72 107 57
-2.666673e-03 -4.966484e-01 -1.789086e+00 174 170 133
4.965266e-02 -4.912860e-01 -1.774041e+00 23 118 18
1.243096e-01 -4.911812e-01 -1.765803e+00 91 104 65
1.248592e-01 -4.915128e-01 -1.767026e+00 91 104 65
2.441773e-01 -4.829631e-01 -1.731141e+00 96 94 81
2.461401e-01 -4.839421e-01 -1.733831e+00 96 94 81
1.115184e-01 -4.872624e-01 -1.765729e+00 29 73 10
2.533175e-01 -4.779792e-01 -1.727741e+00 82 80 66
5.869154e-02 -4.763035e-01 -1.773882e+00 91 155 62
6.559332e-02 -4.763778e-01 -1.774236e+00 188 212 124
1.339277e-01 -4.722491e-01 -1.761807e+00 48 103 43
1.692548e-01 -4.704356e-01 -1.758595e+00 66 81 58
2.715502e-01 -4.647401e-01 -1.729788e+00 57 55 43
2.716477e-01 -4.647097e-01 -1.729905e+00 57 55 43
1.476891e-01 -4.658612e-01 -1.756054e+00 132 161 102
1.495339e-01 -4.632630e-01 -1.753527e+00 23 71 5
1.396364e-01 -4.621958e-01 -1.752144e+00 160 184 124
1.079632e-01 -4.597868e-01 -1.764300e+00 180 220 141
1.287704e-01 -4.606320e-01 -1.773942e+00 171 199 126
8.711461e-02 -4.553969e-01 -1.772026e+00 157 181 116
1.149775e-01 -4.508465e-01 -1.756584e+00 44 88 6
2.954608e-01 -4.467387e-01 -1.725691e+00 58 56 44
1.369119e-01 -4.484849e-01 -1.751781e+00 51 110 43
9.525540e-02 -4.503902e-01 -1.773802e+00 22 18 0
1.936078e-01 -4.473113e-01 -1.761512e+00 154 184 124
1.643648e-01 -4.390997e-01 -1.752926e+00 66 80 19
2.361519e-01 -4.357218e-01 -1.747684e+00 89 78 60
1.673419e-01 -4.323857e-01 -1.752961e+00 51 106 25
3.216112e-01 -4.255482e-01 -1.715624e+00 93 91 78
1.645270e-01 -4.298343e-01 -1.752908e+00 138 190 103
-2.312450e-01 -4.514311e-01 -1.878548e+00 105 39 2
-2.311542e-01 -4.508295e-01 -1.876180e+00 105 39 2
-2.006070e-01 -4.502363e-01 -1.875557e+00 152 89 30
-2.408267e-01 -4.497414e-01 -1.877858e+00 107 40 4
-2.411236e-01 -4.509921e-01 -1.882654e+00 107 40 4
-2.405690e-01 -4.497986e-01 -1.877593e+00 107 40 4
2.198163e-01 -4.278806e-01 -1.746478e+00 181 208 155
-1.903513e-01 -4.476585e-01 -1.868762e+00 102 37 1
-1.968514e-01 -4.472891e-01 -1.869391e+00 94 30 0
2.280150e-01 -4.283650e-01 -1.751368e+00 108 113 70
-2.042911e-01 -4.487029e-01 -1.877417e+00 125 58 2
-2.042911e-01 -4.487029e-01 -1.877417e+00 125 58 2
-2.446109e-01 -4.495911e-01 -1.889336e+00 153 88 24
-2.316833e-01 -4.449029e-01 -1.875349e+00 108 43 4
-2.310841e-01 -4.428565e-01 -1.868170e+00 108 43 4
2.322954e-01 -4.257573e-01 -1.747264e+00 98 75 37
-2.404249e-01 -4.450703e-01 -1.879668e+00 116 47 8
2.211876e-01 -4.229810e-01 -1.744799e+00 186 194 137
-6.957688e-02 -4.471764e-01 -1.870786e+00 139 45 30
7.678139e-02 -4.614628e-01 -1.907037e+00 140 118 88
-7.446362e-02 -4.416957e-01 -1.862494e+00 101 5 2
2.237408e-01 -4.151569e-01 -1.739438e+00 180 168 119
-3.470412e-01 -4.492479e-01 -1.934802e+00 178 106 56
-1.013493e-01 -4.380795e-01 -1.864907e+00 146 56 37
2.146659e-01 -4.150425e-01 -1.744271e+00 104 123 61
2.073098e-01 -4.150331e-01 -1.745481e+00 199 221 148
-2.189019e-01 -4.265916e-01 -1.871110e+00 145 80 23
-2.082136e-01 -4.283350e-01 -1.877909e+00 122 48 3
-1.913721e-01 -4.235454e-01 -1.861784e+00 102 34 2
-2.228855e-01 -4.256605e-01 -1.874149e+00 92 30 0
-1.920531e-01 -4.210119e-01 -1.867355e+00 96 29 3
-2.349512e-01 -4.204396e-01 -1.876906e+00 156 95 40
-2.480669e-01 -4.191588e-01 -1.873248e+00 154 84 28
-3.041129e-01 -4.230030e-01 -1.894884e+00 102 42 2
2.078299e-01 -4.010676e-01 -1.752879e+00 76 118 53
-3.450669e-02 -4.175402e-01 -1.854116e+00 88 6 6
-1.933284e-01 -4.120911e-01 -1.867326e+00 96 27 2
-1.930641e-01 -4.113648e-01 -1.862956e+00 96 27 2
-2.154276e-01 -4.117292e-01 -1.866584e+00 86 17 2
-2.235788e-01 -4.112211e-01 -1.868955e+00 89 27 1
-2.353849e-01 -4.063094e-01 -1.873034e+00 157 93 42
-3.337814e-01 -4.060000e-01 -1.892102e+00 116 59 10
-4.393078e-02 -4.057533e-01 -1.849723e+00 89 1 2
-3.445406e-01 -4.091644e-01 -1.923846e+00 153 99 37
4.030738e-01 -3.817030e-01 -1.711189e+00 75 73 60
4.089491e-01 -3.830607e-01 -1.717001e+00 75 73 60
-3.609925e-01 -4.040158e-01 -1.922657e+00 178 111 57
-5.542932e-02 -3.963986e-01 -1.857658e+00 134 37 21
3.990769e-01 -3.750616e-01 -1.704236e+00 70 68 56
-2.427974e-01 -3.925279e-01 -1.873054e+00 155 84 25
-4.033579e-01 -4.025943e-01 -1.965534e+00 138 93 51
3.147624e-01 -3.773837e-01 -1.754138e+00 74 71 53
-2.354063e-01 -3.784327e-01 -1.860029e+00 97 27 3
-3.063503e-01 -3.826018e-01 -1.891812e+00 159 94 41
-3.055415e-01 -3.817321e-01 -1.887252e+00 159 94 41
3.268070e-01 -3.708915e-01 -1.752706e+00 71 68 58
3.265283e-01 -3.708236e-01 -1.752425e+00 71 68 58
-3.030609e-01 -3.809612e-01 -1.891873e+00 113 46 4
-3.462721e-01 -3.744899e-01 -1.906202e+00 160 100 40
-3.486860e-01 -3.600799e-01 -1.901857e+00 164 105 39
3.885372e-01 -3.488397e-01 -1.745195e+00 91 89 77
-2.188256e-01 -3.490552e-01 -1.852832e+00 103 42 6
-9.634198e-02 -3.463281e-01 -1.832216e+00 141 42 22
-3.192117e-01 -3.493583e-01 -1.889534e+00 108 48 1
-1.133250e-01 -3.438264e-01 -1.834336e+00 154 62 44
-1.126390e-01 -3.451679e-01 -1.842473e+00 154 62 44
-1.165782e-01 -3.424999e-01 -1.841981e+00 98 12 4
-1.563071e-01 -3.440558e-01 -1.856562e+00 180 82 47
-2.042155e-01 -3.407063e-01 -1.854216e+00 96 29 1
-6.232926e-02 -3.381439e-01 -1.834372e+00 129 36 19
-6.116423e-02 -3.393870e-01 -1.843008e+00 129 36 19
-3.537136e-01 -3.413292e-01 -1.895230e+00 160 107 36
-3.564625e-01 -3.427429e-01 -1.907312e+00 160 107 36
-8.677008e-02 -3.357895e-01 -1.832103e+00 87 11 4
-1.242834e-01 -3.332805e-01 -1.841016e+00 91 0 0
-1.234575e-01 -3.343208e-01 -1.849598e+00 91 0 0
-2.014284e-01 -3.342934e-01 -1.861339e+00 159 96 34
-7.777451e-02 -3.313431e-01 -1.843865e+00 136 43 28
-9.808200e-02 -3.316994e-01 -1.858421e+00 141 54 34
-8.673039e-02 -3.281773e-01 -1.839755e+00 82 2 1
-3.302571e-02 -3.277547e-01 -1.843561e+00 80 1 0
-4.857245e-02 -3.267320e-01 -1.841053e+00 95 6 2
-7.852046e-03 -3.217902e-01 -1.825068e+00 95 2 2
-1.604931e-01 -3.208230e-01 -1.837829e+00 140 53 17
-3.568483e-01 -3.236893e-01 -1.899096e+00 124 62 3
-3.568483e-01 -3.236893e-01 -1.899096e+00 124 62 3
-3.375240e-02 -3.217809e-01 -1.840516e+00 79 1 0
-8.843165e-03 -3.227935e-01 -1.859071e+00 131 37 24
-1.746398e-01 -3.188195e-01 -1.851696e+00 126 48 5
-4.935912e-02 -3.179663e-01 -1.840518e+00 135 46 28
-1.976652e-01 -3.162927e-01 -1.847989e+00 158 99 25
9.955428e-02 -3.226053e-01 -1.854998e+00 51 44 36
4.494492e-01 -3.197312e-01 -1.777600e+00 60 54 41
-5.316546e-02 -3.147648e-01 -1.834869e+00 104 3 4
-3.613760e-01 -3.167410e-01 -1.903467e+00 116 56 1
-3.009575e-02 -3.122655e-01 -1.833351e+00 95 9 5
-2.410516e-01 -3.098964e-01 -1.856837e+00 99 35 1
-1.408583e-01 -3.103433e-01 -1.850839e+00 126 34 1
-2.018393e-01 -3.078132e-01 -1.842245e+00 150 92 48
-3.815449e-01 -3.132620e-01 -1.914305e+00 133 56 13
4.224380e-01 -3.100598e-01 -1.761419e+00 57 53 42
-2.375229e-01 -3.082065e-01 -1.855279e+00 161 105 46
-2.094163e-01 -3.070078e-01 -1.854367e+00 159 101 32
-2.403716e-01 -3.031402e-01 -1.849036e+00 107 45 8
-1.857097e-02 -3.023414e-01 -1.829026e+00 89 3 0
-1.432203e-01 -2.994307e-01 -1.849386e+00 135 45 11
-2.413854e-01 -2.988379e-01 -1.855563e+00 152 95 28
-2.311244e-01 -2.977387e-01 -1.853449e+00 85 28 0
-3.586391e-01 -2.998565e-01 -1.898132e+00 167 104 32
-3.880726e-01 -3.015067e-01 -1.919375e+00 163 99 55
-1.107376e-01 -2.969180e-01 -1.833531e+00 74 1 1
5.250668e-02 -3.012739e-01 -1.857907e+00 151 129 87
-2.379968e-01 -2.961069e-01 -1.853203e+00 99 45 3
-7.048290e-02 -2.962350e-01 -1.832033e+00 83 0 0
-2.509546e-01 -2.947105e-01 -1.853620e+00 99 42 1
-1.227405e-01 -2.925877e-01 -1.829698e+00 144 41 25
-1.482583e-01 -2.913238e-01 -1.864019e+00 132 48 12
-1.296183e-01 -2.920395e-01 -1.855165e+00 181 87 53
-1.292684e-01 -2.921895e-01 -1.856958e+00 181 87 53
-7.783723e-02 -2.882905e-01 -1.827214e+00 150 55 45
-7.732887e-02 -2.888072e-01 -1.830466e+00 150 55 45
-1.175819e-01 -2.873715e-01 -1.838772e+00 136 40 24
-8.083792e-02 -2.865362e-01 -1.827935e+00 101 6 6
-3.604049e-01 -2.864085e-01 -1.884328e+00 128 69 1
-1.106685e-01 -2.833915e-01 -1.831164e+00 79 3 2
-9.981066e-02 -2.808852e-01 -1.827366e+00 71 0 0
-3.984996e-02 -2.813403e-01 -1.834578e+00 72 0 0
-1.531442e-01 -2.797040e-01 -1.837852e+00 179 82 46
-2.908685e-02 -2.794581e-01 -1.829319e+00 84 0 0
-5.751702e-02 -2.793686e-01 -1.830591e+00 89 1 0
-2.565796e-01 -2.790035e-01 -1.858845e+00 83 22 1
-2.532932e-01 -2.755547e-01 -1.850598e+00 165 105 41
-3.407620e-02 -2.746833e-01 -1.831100e+00 78 1 1
4.195911e-01 -2.744344e-01 -1.794362e+00 216 203 152
-2.816164e-01 -2.705627e-01 -1.861228e+00 95 41 8
-5.317413e-02 -2.706202e-01 -1.827878e+00 87 0 0
-3.078717e-01 -2.705989e-01 -1.890511e+00 82 22 0
2.443005e-01 -2.734775e-01 -1.842947e+00 29 26 14
-1.766984e-01 -2.628403e-01 -1.843369e+00 131 45 7
-1.078195e-01 -2.628603e-01 -1.830202e+00 183 83 53
-3.840094e-02 -2.621142e-01 -1.837387e+00 86 3 1
-3.854466e-01 -2.614592e-01 -1.907313e+00 133 60 15
2.569590e-01 -2.623457e-01 -1.814992e+00 66 65 47
4.240794e-01 -2.622960e-01 -1.811514e+00 216 199 156
5.268058e-02 -2.590876e-01 -1.852431e+00 146 120 75
-7.888066e-02 -2.554570e-01 -1.829647e+00 167 64 36
-2.183824e-01 -2.552368e-01 -1.854758e+00 155 102 25
-3.941323e-01 -2.523753e-01 -1.910633e+00 141 84 38
-3.407986e-01 -2.519054e-01 -1.875068e+00 158 105 37
-3.919257e-01 -2.528154e-01 -1.916166e+00 167 97 54
-2.034884e-01 -2.506226e-01 -1.837802e+00 87 29 10
-2.054143e-01 -2.446496e-01 -1.825537e+00 149 90 10
-3.236369e-02 -2.427128e-01 -1.827059e+00 158 66 39
-1.707604e-01 -2.432272e-01 -1.962326e+00 201 113 77
-3.858084e-01 -2.358886e-01 -1.896342e+00 135 62 19
-1.455354e-02 -2.332054e-01 -1.829846e+00 156 61 36
-1.453039e-02 -2.333134e-01 -1.828822e+00 156 61 36
-2.560006e-01 -2.276074e-01 -1.848419e+00 152 98 22
-3.507845e-02 -2.277293e-01 -1.820931e+00 154 64 37
-2.143184e-01 -2.253554e-01 -1.842284e+00 100 42 3
-2.143184e-01 -2.253554e-01 -1.842284e+00 100 42 3
-2.004328e-01 -2.236614e-01 -1.837479e+00 178 131 60
-9.414932e-02 -2.226192e-01 -1.811271e+00 171 82 48
-3.389870e-01 -2.216205e-01 -1.872336e+00 104 53 0
7.239320e-03 -2.215633e-01 -1.820837e+00 152 58 33
-8.507820e-02 -2.212471e-01 -1.817316e+00 167 70 38
-2.147106e-01 -2.210031e-01 -1.837228e+00 96 37 4
-2.147591e-01 -2.210307e-01 -1.837462e+00 96 37 4
-3.525010e-01 -2.171459e-01 -1.896920e+00 111 60 5
-3.680585e-01 -2.165436e-01 -1.885467e+00 137 85 10
-2.954124e-01 -2.157304e-01 -1.856346e+00 167 123 55
-2.954712e-01 -2.157381e-01 -1.856561e+00 167 123 55
-3.033072e-01 -2.095693e-01 -1.866876e+00 163 110 33
-4.073406e-02 -2.092968e-01 -1.813917e+00 159 65 39
-8.099280e-02 -2.085178e-01 -1.819201e+00 180 85 55
-8.542761e-02 -2.095081e-01 -1.815353e+00 123 23 4
-3.747304e-02 -2.061922e-01 -1.817104e+00 119 23 1
-2.142254e-01 -2.063331e-01 -1.835241e+00 105 46 6
-2.142378e-01 -2.062973e-01 -1.836648e+00 105 46 6
2.616676e-01 -2.047674e-01 -1.790923e+00 215 198 163
-3.198141e-01 -2.017144e-01 -1.865553e+00 156 100 22
-3.398874e-01 -1.987409e-01 -1.870007e+00 163 114 43
-3.670444e-01 -1.980682e-01 -1.880431e+00 155 113 40
-5.281278e-02 -1.992861e-01 -1.810896e+00 120 21 0
-1.422451e-01 -1.992593e-01 -1.818918e+00 180 108 51
-3.329425e-01 -1.976926e-01 -1.864305e+00 153 101 23
-3.171402e-02 -1.987986e-01 -1.814063e+00 163 62 36
-3.094995e-01 -1.947267e-01 -1.865746e+00 128 71 4
-2.156295e-01 -1.949453e-01 -1.835964e+00 77 28 2
-2.161004e-01 -1.948593e-01 -1.843896e+00 77 28 2
-2.865888e-01 -1.936203e-01 -1.845159e+00 153 103 25
-2.796593e-01 -1.914589e-01 -1.852521e+00 107 55 3
-3.692109e-01 -1.873655e-01 -1.896949e+00 162 115 43
-2.793458e-01 -1.885075e-01 -1.841353e+00 106 56 4
-3.990534e-01 -1.861050e-01 -1.895739e+00 139 94 45
-3.175748e-01 -1.854298e-01 -1.871257e+00 156 114 42
-3.903754e-01 -1.836481e-01 -1.894669e+00 129 55 11
-1.144489e-01 -1.855089e-01 -1.821271e+00 91 27 0
-3.622667e-01 -1.777818e-01 -1.876153e+00 129 73 1
-3.633441e-01 -1.774806e-01 -1.880911e+00 129 73 1
-8.487020e-02 -1.802800e-01 -1.811467e+00 72 12 0
-8.448916e-02 -1.802534e-01 -1.814898e+00 72 12 0
-2.718108e-01 -1.783535e-01 -1.846221e+00 121 56 2
-9.414199e-02 -1.776059e-01 -1.816359e+00 152 91 26
-7.808018e-02 -1.781530e-01 -1.811578e+00 70 15 1
-2.992130e-01 -1.737107e-01 -1.851946e+00 119 59 1
-2.992418e-01 -1.737131e-01 -1.851669e+00 119 59 1
-3.382326e-01 -1.726581e-01 -1.864310e+00 113 68 5
-3.394757e-01 -1.710422e-01 -1.855333e+00 162 114 46
-5.927616e-02 -1.712550e-01 -1.812147e+00 152 97 49
-5.927616e-02 -1.712550e-01 -1.812147e+00 152 97 49
-1.211723e-01 -1.704163e-01 -1.816024e+00 84 24 5
-1.962432e-01 -1.692917e-01 -1.826934e+00 95 35 2
-6.232787e-02 -1.681400e-01 -1.812879e+00 84 22 10
-3.979049e-01 -1.622562e-01 -1.896288e+00 145 77 31
-1.213309e-01 -1.667234e-01 -1.815357e+00 77 14 3
-1.216303e-01 -1.671804e-01 -1.812316e+00 77 14 3
-2.069363e-01 -1.664332e-01 -1.830988e+00 115 60 1
-3.244272e-01 -1.642851e-01 -1.858617e+00 161 107 35
-3.200158e-01 -1.643946e-01 -1.855239e+00 126 69 5
-3.216951e-01 -1.633981e-01 -1.864696e+00 126 69 5
-1.038270e-01 -1.645657e-01 -1.814496e+00 163 96 31
-6.398645e-02 -1.639905e-01 -1.804367e+00 141 81 22
-3.740619e-01 -1.580800e-01 -1.886820e+00 123 74 9
-2.075624e-01 -1.622727e-01 -1.825369e+00 110 50 2
-2.494868e-01 -1.611377e-01 -1.833995e+00 129 70 4
-2.494868e-01 -1.611377e-01 -1.833995e+00 129 70 4
-2.157311e-01 -1.618146e-01 -1.823763e+00 112 50 4
-2.632016e-01 -1.609396e-01 -1.841269e+00 115 64 0
-3.538074e-01 -1.577603e-01 -1.869780e+00 125 73 1
-3.148710e-01 -1.581160e-01 -1.853902e+00 114 62 2
-3.160278e-01 -1.573722e-01 -1.860153e+00 114 62 2
-2.952087e-01 -1.566713e-01 -1.849551e+00 119 69 3
-8.543129e-02 -1.570866e-01 -1.816240e+00 145 84 18
-3.033055e-01 -1.550653e-01 -1.848803e+00 165 119 44
-3.027645e-01 -1.554826e-01 -1.844748e+00 165 119 44
-3.418245e-01 -1.468271e-01 -1.882692e+00 155 109 31
1.881156e-02 -1.528302e-01 -1.830563e+00 180 113 65
2.013071e-02 -1.519521e-01 -1.834844e+00 180 113 65
-3.084624e-01 -1.523951e-01 -1.858449e+00 120 74 3
-2.186132e-01 -1.520735e-01 -1.834336e+00 84 18 0
-3.649358e-01 -1.477039e-01 -1.874715e+00 124 72 2
-2.139329e-01 -1.494164e-01 -1.829502e+00 160 102 41
-2.138604e-01 -1.491378e-01 -1.830409e+00 160 102 41
-3.979224e-02 -1.490885e-01 -1.810180e+00 83 18 2
-2.203359e-01 -1.496478e-01 -1.823483e+00 168 111 59
-3.663119e-02 -1.487647e-01 -1.808930e+00 148 85 32
-2.173474e-01 -1.470488e-01 -1.822265e+00 96 35 9
-2.242046e-01 -1.470693e-01 -1.829686e+00 88 21 10
-2.243204e-01 -1.468435e-01 -1.829727e+00 88 21 10
-1.485542e-01 -1.426450e-01 -1.838578e+00 149 94 28
-1.858363e-01 -1.443878e-01 -1.824450e+00 183 118 60
-8.710036e-02 -1.441444e-01 -1.808449e+00 108 40 1
-8.679432e-02 -1.437639e-01 -1.811078e+00 108 40 1
-5.761787e-02 -1.375405e-01 -1.816206e+00 142 81 24
-2.364152e-01 -1.388853e-01 -1.826634e+00 151 98 27
-2.540058e-01 -1.380770e-01 -1.830401e+00 99 38 11
-2.415874e-01 -1.350467e-01 -1.841687e+00 88 35 0
-3.663106e-01 -1.327659e-01 -1.874336e+00 130 82 5
-2.340560e-01 -1.355021e-01 -1.831249e+00 75 20 2
-2.507675e-01 -1.352382e-01 -1.832366e+00 166 120 52
-3.533228e-01 -1.303970e-01 -1.876712e+00 138 87 22
-2.442570e-01 -1.346743e-01 -1.834492e+00 158 110 46
-2.442570e-01 -1.346743e-01 -1.834492e+00 158 110 46
1.874986e-02 -1.320516e-01 -1.811151e+00 153 99 37
-2.817931e-01 -1.316606e-01 -1.844539e+00 102 49 2
-2.814618e-01 -1.321034e-01 -1.842412e+00 102 49 2
-2.705288e-01 -1.340669e-01 -1.828322e+00 154 104 40
-1.437173e-01 -1.335071e-01 -1.813418e+00 153 95 38
-2.375186e-01 -1.333259e-01 -1.823663e+00 161 109 52
-2.872550e-01 -1.313842e-01 -1.842401e+00 96 40 3
-3.078453e-01 -1.308954e-01 -1.842556e+00 152 99 32
-3.077448e-01 -1.309812e-01 -1.842421e+00 152 99 32
-1.471660e-01 -1.327985e-01 -1.809514e+00 69 6 0
2.920318e-02 -1.291745e-01 -1.817373e+00 178 114 63
-2.405457e-01 -1.320976e-01 -1.821949e+00 101 41 5
-9.142926e-02 -1.290673e-01 -1.805213e+00 75 11 0
-9.064584e-02 -1.282270e-01 -1.810586e+00 75 11 0
-3.427378e-01 -1.246329e-01 -1.863928e+00 153 105 32
-3.410907e-01 -1.197311e-01 -1.860606e+00 121 74 6
-3.583397e-01 -1.208402e-01 -1.860848e+00 119 71 7
-3.337012e-01 -1.182553e-01 -1.855145e+00 95 47 1
-8.599866e-02 -1.214301e-01 -1.799495e+00 83 22 9
-1.853582e-01 -1.199365e-01 -1.821476e+00 183 105 54
-2.098884e-01 -1.182469e-01 -1.825473e+00 77 16 1
-2.107556e-01 -1.165476e-01 -1.834881e+00 77 16 1
-4.302776e-02 -1.156160e-01 -1.805671e+00 150 86 33
-1.443635e-01 -1.159077e-01 -1.812543e+00 168 112 65
-1.446295e-01 -1.166797e-01 -1.808760e+00 168 112 65
-3.483705e-01 -1.092422e-01 -1.863597e+00 161 107 42
-2.237198e-01 -1.123324e-01 -1.825454e+00 74 13 0
-2.094807e-01 -1.141169e-01 -1.812234e+00 97 33 5
-1.455518e-01 -1.103817e-01 -1.820484e+00 92 31 0
-1.457263e-01 -1.115080e-01 -1.815327e+00 92 31 0
-2.166580e-01 -1.134817e-01 -1.814879e+00 89 34 1
1.373676e-02 -1.063961e-01 -1.805509e+00 110 52 0
3.893442e-02 -1.014315e-01 -1.815996e+00 178 115 73
4.242673e-02 -9.959276e-02 -1.825330e+00 178 115 73
-3.759136e-01 -9.990291e-02 -1.873398e+00 120 66 4
4.399763e-02 -1.003356e-01 -1.820239e+00 115 63 16
-3.466094e-01 -9.566365e-02 -1.853925e+00 164 104 37
-3.596183e-01 -9.413149e-02 -1.864367e+00 86 33 2
2.029499e-02 -9.587447e-02 -1.807059e+00 129 72 6
1.846410e-02 -9.291250e-02 -1.814666e+00 153 100 33
-3.605510e-01 -9.255432e-02 -1.853472e+00 162 114 49
-2.561869e-01 -9.770227e-02 -1.815755e+00 187 98 63
