ply
format ascii 1.0
element face 0
property list uchar int vertex_indices
element vertex 931
property float x
property float y
property float z
property uchar diffuse_red
property uchar diffuse_green
property uchar diffuse_blue
end_header
2.119622e-01 -4.362643e-01 -1.725257e+00 31 88 10
3.924781e-01 -4.381789e-01 -1.703398e+00 66 64 51
-3.424264e-01 -4.261399e-01 -1.875214e+00 116 59 3
-3.424264e-01 -4.261399e-01 -1.875214e+00 116 59 3
4.314223e-01 -4.281525e-01 -1.713879e+00 67 64 53
4.314223e-01 -4.281525e-01 -1.713879e+00 67 64 53
4.388464e-01 -4.164588e-01 -1.707957e+00 68 66 52
-1.887109e-01 -3.739675e-01 -1.838745e+00 114 41 0
3.584590e-01 -3.984861e-01 -1.740555e+00 55 53 40
-2.466732e-01 -3.368136e-01 -1.836628e+00 164 102 39
-1.285890e-01 -3.343274e-01 -1.835944e+00 134 35 4
-1.359819e-02 -3.306014e-01 -1.847811e+00 91 3 2
-3.947213e-01 -1.223649e-01 -1.876802e+00 129 64 19
2.637092e-01 -5.061891e-01 -1.700441e+00 73 72 54
2.672756e-01 -5.025699e-01 -1.697500e+00 74 72 57
2.782942e-01 -4.833037e-01 -1.690092e+00 54 52 40
1.665755e-01 -4.574994e-01 -1.732848e+00 41 93 15
2.293044e-01 -4.440301e-01 -1.725962e+00 79 95 31
-2.661014e-02 -4.664179e-01 -1.858702e+00 135 38 25
-1.884037e-02 -4.535331e-01 -1.860891e+00 94 1 1
1.691202e-01 -4.337441e-01 -1.772061e+00 44 40 29
-3.807715e-02 -4.368840e-01 -1.860864e+00 145 44 29
-3.645944e-01 -4.091191e-01 -1.896849e+00 110 51 0
-3.283111e-01 -4.034079e-01 -1.910032e+00 175 114 53
-3.223111e-01 -3.930040e-01 -1.881763e+00 175 114 53
-2.483085e-01 -3.876175e-01 -1.852458e+00 165 103 47
-2.429343e-01 -3.594504e-01 -1.849721e+00 94 29 5
4.421844e-01 -3.900095e-01 -1.761244e+00 35 33 20
4.551977e-01 -2.923304e-01 -2.049687e+00 41 40 22
1.797357e-01 -5.313669e-01 -1.622785e+00 76 77 59
-3.721264e-02 -2.498502e-01 -1.856898e+00 158 64 31
-2.660761e-01 1.245872e-02 -1.787630e+00 154 48 17
6.879557e-01 -4.979507e-01 -1.849736e+00 86 77 38
7.345116e-01 -5.379211e-01 -1.839095e+00 204 188 152
-1.856268e-01 -2.254759e-01 -1.833386e+00 111 56 16
7.097316e-01 -6.108611e-01 -1.665834e+00 101 93 46
-9.625246e-02 -2.951862e-01 -1.849961e+00 89 11 4
-1.837142e-01 -1.601304e-01 -1.823548e+00 136 81 14
-1.702753e-01 -1.626528e-01 -1.825551e+00 183 128 73
-1.614592e-01 -2.595565e-01 -1.824745e+00 189 93 55
-1.177266e-01 -3.485757e-01 -1.872829e+00 158 81 42
-3.829729e-01 -1.875756e-01 -1.898547e+00 172 119 60
-2.223675e-01 -3.064507e-01 -1.857537e+00 88 26 2
-3.850815e-01 -3.239526e-01 -1.936523e+00 122 63 1
-1.851523e-01 -2.465477e-01 -1.848850e+00 97 34 1
-1.967775e-01 -2.390822e-01 -1.837336e+00 95 34 2
-1.858412e-01 -2.261122e-01 -1.833870e+00 98 44 1
-1.858412e-01 -2.261122e-01 -1.833870e+00 98 44 1
-2.819463e-01 -1.757814e-01 -1.829737e+00 104 57 3
-3.622672e-01 -1.562039e-01 -1.877936e+00 109 70 4
-2.951292e-01 -1.109094e-01 -1.824321e+00 113 64 6
-1.967615e-01 -2.552943e-01 -1.843593e+00 105 50 4
-3.429683e-01 -1.883053e-01 -1.868772e+00 156 108 40
-3.024499e-01 -1.820389e-01 -1.846931e+00 153 107 31
-2.099160e-01 -1.215630e-01 -1.802127e+00 161 113 42
-1.958976e-01 -1.882440e-01 -1.821791e+00 95 43 7
-3.172221e-01 -1.635853e-01 -1.844667e+00 158 112 44
-2.750261e-01 -1.089444e-01 -1.809038e+00 122 64 5
-3.351945e-01 -1.059951e-01 -1.840056e+00 155 107 35
5.010476e-01 -3.437084e-01 -1.902609e+00 30 27 18
1.580698e-01 -2.206671e-01 -1.882532e+00 191 173 133
-3.319282e-01 -5.669596e-02 -1.839230e+00 154 80 47
-3.184308e-01 -4.279501e-01 -1.855987e+00 90 29 0
-3.220981e-01 -1.672135e-01 -1.846319e+00 98 56 1
-3.224296e-01 -1.678944e-01 -1.850111e+00 95 52 0
4.009887e-01 -2.687708e-01 -1.845039e+00 212 198 152
-3.858398e-01 -3.777359e-01 -1.911016e+00 173 112 52
-3.474167e-01 -1.572589e-01 -1.852418e+00 96 57 3
-2.041882e-01 3.133544e-01 -1.944202e+00 120 106 105
-1.731297e-01 -1.947996e-01 -1.817998e+00 193 142 89
-6.985496e-02 -5.627069e-01 -1.720392e+00 28 109 24
-2.609688e-01 -2.741251e-01 -1.838361e+00 126 72 30
-2.609688e-01 -2.741251e-01 -1.838361e+00 126 72 30
1.819640e-01 -6.692318e-01 -1.693650e+00 114 104 72
-2.983896e-01 -6.174019e-01 -1.701876e+00 30 109 38
-2.413917e-01 -6.003769e-01 -1.703869e+00 99 122 68
-2.028485e-01 -5.829261e-01 -1.700837e+00 177 207 151
-1.130477e-01 1.297559e-01 -1.777538e+00 20 17 34
-3.778434e-01 -1.478388e-01 -1.873308e+00 187 130 75
-3.778434e-01 -1.478388e-01 -1.873308e+00 187 130 75
-2.680465e-01 6.624101e-03 -1.793613e+00 176 69 26
-9.008742e-02 -5.409177e-01 -1.706995e+00 19 119 21
-1.670751e-01 -5.757621e-01 -1.700541e+00 18 102 17
-2.510088e-02 -5.339233e-01 -1.706568e+00 22 103 19
-2.015769e-01 -6.003725e-01 -1.692464e+00 182 165 119
1.658351e-01 -4.479783e-01 -1.711192e+00 162 183 116
-7.467180e-02 -5.173338e-01 -1.711260e+00 37 111 27
-2.345547e-01 -5.989420e-01 -1.690666e+00 62 98 33
-1.730672e-01 -5.498352e-01 -1.698329e+00 191 212 148
2.269385e-01 -4.330020e-01 -1.727050e+00 21 95 3
-1.075712e-01 -6.443834e-02 -1.811432e+00 162 108 26
2.262245e-01 -5.857672e-01 -1.587454e+00 27 24 5
1.976389e-01 -4.275807e-01 -1.732529e+00 31 26 6
-1.926458e-01 -2.450056e-01 -1.825562e+00 159 102 24
-6.362285e-03 1.991360e-01 -1.852203e+00 61 48 57
2.351546e-01 -5.974765e-01 -1.596404e+00 34 30 4
1.602827e-01 -6.263709e-01 -1.694234e+00 43 37 15
-2.239830e-01 -4.358732e-01 -1.843173e+00 94 30 3
-2.491123e-01 -4.103779e-01 -1.837411e+00 108 44 1
-2.843029e-01 -3.886937e-01 -1.838770e+00 108 38 0
-2.238680e-01 -3.918022e-01 -1.842874e+00 89 24 1
-2.520564e-01 -3.788355e-01 -1.834188e+00 109 44 0
-2.322459e-01 -3.064013e-01 -1.828337e+00 100 44 0
-1.347422e-01 3.535568e-02 -1.814302e+00 73 70 77
-2.695925e-01 4.774786e-02 -1.816742e+00 65 61 71
-5.221261e-02 -5.042390e-01 -1.697282e+00 78 161 64
1.069116e-01 -4.697111e-01 -1.744021e+00 46 42 8
2.380585e-01 -4.246954e-01 -1.728344e+00 196 182 119
-2.057435e-01 -1.881851e-01 -1.827456e+00 101 54 11
-1.129823e-01 -9.017772e-02 -1.806073e+00 55 4 0
-1.436673e-01 2.141370e-01 -1.866146e+00 55 42 58
-3.552028e-01 -6.023739e-01 -1.692926e+00 56 106 28
-2.879454e-01 -5.954529e-01 -1.680668e+00 112 157 103
-2.879454e-01 -5.954529e-01 -1.680668e+00 112 157 103
6.382781e-01 -5.574104e-01 -1.633287e+00 43 39 15
1.344322e-01 -5.549051e-01 -1.735322e+00 28 22 8
-6.052859e-03 -5.143628e-01 -1.716085e+00 52 153 49
5.280342e-01 -3.232693e-01 -1.934711e+00 53 40 23
-1.964477e-01 -2.033887e-01 -1.822345e+00 113 51 4
6.298575e-01 -6.137399e-01 -1.661934e+00 54 48 38
-5.032844e-02 -4.960170e-01 -1.675922e+00 12 110 17
-4.639195e-02 -5.323538e-01 -1.668932e+00 182 160 123
-2.649184e-01 3.022632e-01 -1.907366e+00 206 190 137
-1.946618e-01 -5.084427e-01 -1.618502e+00 76 91 28
-3.951868e-01 -2.336319e-01 -1.951640e+00 183 127 63
7.966380e-01 -6.521971e-01 -1.720642e+00 199 189 142
-1.506694e-01 -3.059207e-01 -1.854059e+00 184 97 62
5.771740e-01 -4.822103e-01 -1.695617e+00 43 44 30
3.167679e-02 -1.173475e-01 -1.874585e+00 128 67 27
8.615972e-02 5.045786e-02 -1.890814e+00 153 32 5
-7.340540e-02 -2.034605e-01 -1.852843e+00 150 98 46
1.446513e-02 -1.792607e-01 -1.872964e+00 146 84 31
-1.847583e-01 -1.638428e-01 -1.850993e+00 154 98 23
-3.432836e-01 -1.345575e-01 -1.915529e+00 103 53 0
-3.432836e-01 -1.345575e-01 -1.915529e+00 103 53 0
5.408017e-02 -1.652425e-01 -1.907171e+00 87 27 0
1.068820e-02 -7.520840e-02 -1.846422e+00 88 29 2
-7.072170e-04 -1.626529e-01 -1.865374e+00 139 81 21
-1.137988e-02 -1.574863e-01 -1.854864e+00 94 35 1
-3.594308e-01 -1.315071e-01 -1.910328e+00 153 105 35
-7.666623e-02 -1.391629e-01 -1.837417e+00 134 79 12
3.705200e-02 -1.165981e-01 -1.872952e+00 91 32 0
-3.760720e-01 -7.502276e-02 -1.914887e+00 110 61 3
1.458393e-03 -8.001614e-02 -1.848507e+00 69 13 1
-7.967627e-02 -1.636219e-01 -1.827682e+00 110 43 2
-2.441505e-02 -1.775241e-01 -1.857958e+00 87 28 1
-4.958929e-02 -1.700946e-01 -1.850212e+00 85 25 0
-2.279807e-02 -1.616552e-01 -1.854966e+00 87 33 0
-3.747198e-01 -1.090922e-01 -1.926543e+00 152 110 38
-3.786258e-01 -3.233825e-02 -1.918345e+00 179 100 61
-1.147701e-01 -3.161995e-01 -1.877033e+00 167 78 44
-1.147701e-01 -3.161995e-01 -1.877033e+00 167 78 44
-5.928483e-02 -2.877890e-01 -1.890484e+00 151 56 28
-8.054655e-02 -1.745746e-01 -1.852435e+00 101 36 2
-1.018452e-01 -1.285063e-01 -1.816441e+00 71 19 0
-2.426300e-01 -1.496847e-01 -1.824592e+00 149 94 30
-1.281455e-01 -1.397474e-01 -1.816586e+00 72 16 2
-1.318185e-01 -1.238401e-01 -1.812603e+00 144 90 17
2.232937e-01 -4.316647e-01 -1.721211e+00 35 91 2
-2.487259e-01 -4.835305e-01 -1.894038e+00 111 48 12
-1.894244e-01 -1.424809e-01 -1.818505e+00 177 120 49
-1.124212e-01 -1.263489e-01 -1.815745e+00 110 55 9
-2.361355e-01 -9.208032e-02 -1.812592e+00 169 110 35
-2.138565e-01 -2.024574e-01 -1.834747e+00 118 62 2
-2.538797e-01 -1.201054e-01 -1.815115e+00 98 42 7
-2.521445e-01 -1.191767e-01 -1.821770e+00 175 125 61
-2.358396e-01 -2.154105e-01 -1.835432e+00 99 50 3
-2.812336e-01 -1.805722e-01 -1.846891e+00 103 56 4
-2.052109e-01 -1.432524e-01 -1.819424e+00 98 36 3
-2.273950e-01 -1.239318e-01 -1.817083e+00 95 44 7
-2.764730e-01 -1.178458e-01 -1.829991e+00 107 51 2
-2.282062e-01 -1.206795e-01 -1.818087e+00 99 43 10
-2.282062e-01 -1.206795e-01 -1.818087e+00 99 43 10
-2.660469e-01 -1.164313e-01 -1.824634e+00 161 112 49
-2.660469e-01 -1.164313e-01 -1.824634e+00 161 112 49
6.888393e-01 -5.474606e-01 -1.731255e+00 198 183 142
2.126711e-01 -4.357555e-01 -1.717159e+00 212 227 158
-5.089068e-02 -1.377877e-01 -1.834336e+00 94 33 1
-2.229839e-01 -3.083306e-01 -1.866320e+00 104 47 11
-8.231419e-02 -1.834131e-01 -1.837788e+00 155 92 15
-9.966083e-02 -1.815551e-01 -1.833887e+00 74 17 0
-3.162284e-01 -1.432865e-01 -1.856985e+00 164 113 34
-3.613879e-01 -2.165941e-01 -1.909143e+00 109 60 0
-8.996779e-02 -1.089460e-01 -1.815237e+00 85 25 0
-3.495525e-01 -6.013889e-02 -1.857613e+00 143 50 13
-3.238859e-01 -4.578798e-02 -1.842392e+00 172 87 48
-1.190034e-01 -9.857748e-02 -1.826037e+00 83 26 0
-1.877049e-01 -5.459139e-01 -1.678150e+00 21 119 23
1.828008e-01 -4.395326e-01 -1.711408e+00 22 122 24
5.101650e-02 -4.657899e-01 -1.704393e+00 34 108 19
9.849021e-02 -4.556722e-01 -1.706114e+00 17 94 9
1.449448e-01 -4.453797e-01 -1.721208e+00 164 174 117
2.040278e-01 -4.333705e-01 -1.720203e+00 12 96 13
1.983301e-01 -4.338892e-01 -1.728129e+00 167 179 124
1.486563e-01 -4.600888e-01 -1.712986e+00 184 192 135
1.962450e-01 -4.248933e-01 -1.728145e+00 29 36 4
6.553617e-01 -5.663636e-01 -1.647941e+00 35 27 14
1.637811e-02 -5.582396e-01 -1.708395e+00 171 153 117
1.837461e-01 -4.628795e-01 -1.722456e+00 92 107 50
-2.989789e-01 -5.273788e-01 -1.610759e+00 15 92 17
-3.719963e-01 -5.229420e-01 -1.608803e+00 24 95 19
-8.519160e-02 -1.308305e-01 -1.811453e+00 134 79 12
6.708186e-01 -5.419864e-01 -1.687341e+00 181 165 129
-2.669933e-01 -2.091775e-01 -1.844584e+00 97 49 8
3.635830e-01 -5.277565e-01 -1.594723e+00 74 72 51
4.989720e-01 -5.003908e-01 -1.621965e+00 66 63 46
5.838965e-01 -4.776187e-01 -1.671745e+00 196 180 146
-2.199373e-01 -4.888527e-01 -1.601468e+00 13 93 15
-2.740282e-01 2.810189e-02 -1.780754e+00 104 7 0
-4.165586e-01 -6.668346e-01 -1.711015e+00 27 94 25
3.885808e-01 -5.318740e-01 -1.604317e+00 72 69 50
6.020631e-02 -4.518720e-01 -1.686972e+00 25 103 17
-2.644010e-01 -6.092613e-01 -1.703841e+00 174 195 130
4.017512e-01 -4.692625e-01 -1.817787e+00 20 11 3
8.565947e-02 -4.454979e-01 -1.699776e+00 223 233 182
1.754006e-01 -6.078929e-01 -2.129682e+00 18 2 0
-3.468751e-02 -4.457048e-01 -1.638226e+00 49 139 47
4.983262e-02 -4.697725e-01 -1.684333e+00 89 164 81
4.480982e-02 -4.636705e-01 -1.680282e+00 46 121 34
4.669076e-02 -4.361592e-01 -1.669993e+00 22 91 7
2.084075e-01 -4.095024e-01 -1.717890e+00 23 33 5
7.589376e-02 -3.052930e-01 -1.961696e+00 125 24 6
-1.629983e-01 -5.438283e-01 -1.651949e+00 185 170 127
-1.312291e-01 -5.731283e-01 -1.714042e+00 21 118 22
-4.069666e-02 -5.317239e-01 -1.711636e+00 21 112 19
-3.514461e-02 -5.676023e-01 -1.704009e+00 169 154 113
9.933642e-02 -4.798214e-01 -1.712794e+00 17 109 18
6.178164e-01 -5.248634e-01 -1.678651e+00 20 21 8
1.763538e-01 -4.590031e-01 -1.718689e+00 152 169 106
1.462849e-01 -4.820506e-01 -1.710342e+00 108 131 75
3.178811e-01 -3.948698e-01 -1.718280e+00 79 73 51
-3.632827e-01 -5.842002e-01 -1.668994e+00 21 99 19
1.071523e-01 -4.709346e-01 -1.727485e+00 175 192 141
-1.864912e-01 -6.044618e-01 -1.703732e+00 113 134 69
8.473066e-02 -4.751522e-01 -1.702611e+00 22 103 13
-2.945844e-01 -5.716768e-01 -1.656648e+00 126 145 95
-3.413664e-01 -1.738336e-01 -1.820442e+00 154 107 38
-3.413664e-01 -1.738336e-01 -1.820442e+00 154 107 38
-2.687216e-01 -3.418613e-01 -1.778034e+00 103 37 0
-2.738376e-01 -3.253407e-01 -1.792145e+00 104 36 1
-2.738376e-01 -3.253407e-01 -1.792145e+00 104 36 1
-2.636052e-01 -3.076500e-01 -1.783768e+00 150 87 30
-2.636052e-01 -3.076500e-01 -1.783768e+00 150 87 30
-2.408624e-01 -2.741647e-01 -1.789959e+00 138 77 21
-2.614446e-01 -2.636290e-01 -1.796699e+00 148 89 23
-2.014207e-01 -2.279994e-01 -1.796870e+00 72 17 0
-2.170998e-01 -2.251647e-01 -1.799573e+00 80 20 0
-2.178109e-01 -2.257301e-01 -1.801091e+00 80 20 0
-3.220733e-01 -1.891108e-01 -1.814265e+00 112 59 3
-3.220733e-01 -1.891108e-01 -1.814265e+00 112 59 3
-3.737797e-01 -1.744176e-01 -1.824723e+00 123 73 11
-1.884821e-01 -1.821754e-01 -1.810381e+00 86 35 1
-3.625076e-01 -1.507210e-01 -1.829075e+00 152 107 34
-3.356895e-01 -1.523674e-01 -1.826209e+00 156 109 36
-3.380225e-01 -1.440320e-01 -1.827178e+00 108 67 13
-1.137535e-01 -1.677925e-01 -1.809534e+00 145 87 23
-1.846137e-01 -1.582159e-01 -1.817099e+00 113 59 0
-1.825600e-01 -1.454886e-01 -1.819944e+00 87 22 0
-3.411495e-01 -1.136543e-01 -1.837823e+00 149 101 29
-3.492125e-01 -1.008282e-01 -1.837329e+00 103 53 7
-2.695728e-01 -3.536345e-01 -1.776939e+00 105 42 0
-2.664262e-01 -2.867361e-01 -1.789317e+00 96 29 0
-2.340845e-01 -2.900880e-01 -1.786582e+00 145 80 21
-2.611830e-01 -2.849677e-01 -1.788185e+00 152 86 34
-3.695347e-01 -2.723058e-01 -1.805495e+00 118 59 0
-1.449841e-01 -2.906907e-01 -1.786091e+00 93 4 2
-1.470757e-01 -2.812114e-01 -1.781182e+00 170 86 49
-2.037529e-01 -2.273309e-01 -1.798754e+00 156 108 42
-2.115650e-01 -2.244381e-01 -1.799633e+00 151 100 34
-2.057830e-01 -2.149221e-01 -1.802877e+00 81 16 0
-3.133429e-01 -1.751012e-01 -1.819423e+00 158 109 33
-3.706813e-01 -1.641085e-01 -1.826422e+00 107 59 4
-3.067352e-01 -1.633377e-01 -1.821724e+00 146 98 34
-3.621498e-01 -1.376136e-01 -1.831098e+00 157 111 34
-3.457177e-01 -1.351488e-01 -1.830134e+00 152 108 33
-3.005044e-01 -1.344769e-01 -1.824907e+00 121 73 3
-3.586337e-01 -1.276711e-01 -1.833739e+00 153 109 36
-3.461536e-01 -1.272538e-01 -1.831309e+00 117 68 4
-2.015799e-01 -1.297550e-01 -1.823537e+00 80 22 5
-3.630540e-01 -9.114661e-02 -1.844736e+00 105 57 0
-3.674019e-01 -8.175912e-02 -1.845353e+00 159 116 47
-3.491183e-01 -7.086873e-02 -1.852134e+00 92 39 4
-3.273145e-01 -6.888190e-02 -1.846501e+00 138 54 17
-3.753783e-01 -5.351870e-02 -1.846472e+00 168 108 44
-3.870342e-01 -2.930030e-01 -1.802955e+00 111 56 3
-3.838672e-01 -2.494358e-01 -1.812271e+00 110 55 1
-2.676750e-01 -2.415911e-01 -1.802032e+00 80 14 3
-3.802631e-01 -2.033237e-01 -1.818571e+00 113 53 4
-3.802631e-01 -2.033237e-01 -1.818571e+00 113 53 4
-3.462530e-01 -1.787087e-01 -1.819883e+00 100 47 0
-3.744310e-01 -1.677247e-01 -1.825662e+00 154 107 34
-2.158181e-01 -1.778635e-01 -1.811545e+00 90 40 0
-3.772818e-01 -1.581773e-01 -1.831127e+00 113 66 0
-2.820251e-01 -1.669302e-01 -1.818807e+00 99 53 0
-2.892148e-01 -1.599615e-01 -1.820514e+00 148 102 40
-3.665809e-01 -1.395810e-01 -1.830994e+00 121 64 1
-1.081250e-01 -1.694941e-01 -1.810257e+00 76 16 3
-3.995067e-01 -1.322192e-01 -1.838519e+00 122 45 5
-2.173035e-01 -1.283123e-01 -1.826619e+00 72 16 6
-3.354595e-01 -1.020943e-01 -1.838608e+00 162 113 47
-3.245563e-01 -9.977601e-02 -1.839428e+00 92 44 1
-3.971119e-01 -7.273858e-02 -1.854031e+00 130 56 13
-3.593006e-01 -6.431788e-02 -1.851369e+00 162 114 42
-3.739623e-01 -3.431972e-02 -1.864224e+00 182 105 65
-3.930660e-01 -1.638709e-02 -1.864034e+00 123 57 9
-2.840460e-01 3.250277e-02 -1.884102e+00 24 20 26
1.658435e-01 -4.739095e-01 -1.729121e+00 180 191 125
1.545062e-01 -4.634002e-01 -1.716633e+00 180 191 125
6.846602e-02 -4.864724e-01 -1.714800e+00 189 200 131
2.311438e-01 -4.235973e-01 -1.727667e+00 97 134 54
-1.507813e-01 -2.693679e-01 -1.803952e+00 130 28 0
8.618079e-02 -4.619591e-01 -1.714999e+00 121 179 95
1.212380e-01 -5.024060e-01 -1.751369e+00 12 83 9
-1.937522e-01 -1.419215e-01 -1.816208e+00 107 47 0
-2.630579e-01 -8.495149e-02 -1.792514e+00 136 40 6
1.887302e-01 -4.254289e-01 -1.726083e+00 24 23 0
-3.081972e-01 -1.114272e-01 -1.834072e+00 149 98 34
-3.503626e-01 -7.923941e-02 -1.850088e+00 153 99 18
-8.466368e-02 -9.053239e-02 -1.819066e+00 130 75 9
-3.680314e-01 -2.957625e-02 -1.851777e+00 142 57 17
-3.542668e-01 -2.946123e-02 -1.831867e+00 180 102 63
-3.545928e-01 -2.899006e-02 -1.832521e+00 180 102 63
-2.026222e-01 -2.290635e-01 -1.801059e+00 156 108 42
-2.418011e-01 -9.400548e-02 -1.802290e+00 163 110 35
-3.752644e-01 -2.038706e-01 -1.835546e+00 99 47 1
-3.175692e-01 -1.925855e-01 -1.816570e+00 99 47 0
-3.331449e-01 -1.084249e-01 -1.832449e+00 106 52 2
1.562511e-01 -4.224486e-01 -1.531605e+00 22 22 12
1.562511e-01 -4.224486e-01 -1.531605e+00 22 22 12
8.867165e-01 -1.273067e+00 -1.906723e+00 191 175 141
3.479817e-01 -4.469438e-01 -1.482919e+00 42 37 27
1.961272e-01 -5.019845e-01 -1.729476e+00 4 11 2
4.409654e-01 -6.364297e-01 -1.537445e+00 83 74 44
1.372390e+00 -1.806917e+00 -2.386472e+00 40 36 15
3.447547e-01 -4.984786e-01 -1.465216e+00 72 62 33
4.386051e-01 -9.606250e-01 -2.373254e+00 13 89 9
2.521530e-01 -5.359750e-01 -1.820669e+00 29 92 19
-2.993348e-01 -1.651020e-01 -1.973005e+00 104 50 3
-1.505718e-01 -1.353440e-01 -1.654642e+00 89 28 1
1.312435e-01 -2.691953e-01 -1.399146e+00 164 154 98
1.227534e-01 -4.374868e-01 -1.731135e+00 13 10 2
3.756587e-01 -7.641837e-01 -1.689686e+00 130 125 95
-3.988806e-01 2.186657e-01 -1.908979e+00 115 98 82
1.929880e-01 -4.575558e-01 -1.724644e+00 23 112 21
6.570710e-01 -6.504326e-01 -1.631326e+00 181 166 130
1.839481e-03 -5.105853e-01 -1.710855e+00 25 121 24
-8.299936e-02 -5.845631e-01 -1.703335e+00 169 155 110
1.717789e-02 -2.579615e-01 -1.793644e+00 17 12 6
6.273392e-01 -7.303242e-01 -1.637406e+00 61 50 17
1.519684e-01 -4.649599e-01 -1.716519e+00 172 186 124
1.610730e-01 -4.505264e-01 -1.713482e+00 194 218 151
6.367675e-02 -4.980816e-01 -1.715492e+00 15 95 6
1.535700e-01 -4.777675e-01 -1.716104e+00 17 84 9
1.535700e-01 -4.777675e-01 -1.716104e+00 17 84 9
1.342831e-01 -4.637300e-01 -1.717306e+00 66 149 61
-3.860618e-01 -3.073310e-01 -1.804350e+00 113 57 2
-1.934349e-01 -2.642537e-01 -1.769974e+00 119 38 1
9.152537e-02 -2.258408e-01 -1.385379e+00 202 184 148
-7.334133e-02 -3.364922e-01 -1.528294e+00 39 35 20
1.988040e+00 -2.578915e+00 -2.926983e+00 39 36 10
1.463534e-01 -2.746274e-01 -1.401251e+00 203 186 142
-2.024516e-01 -7.014626e-03 -1.486357e+00 206 144 105
1.235469e+00 -1.605517e+00 -2.250492e+00 31 26 5
2.113610e-01 -4.954964e-01 -1.801783e+00 186 199 144
7.669863e-02 -2.750640e-01 -1.502731e+00 32 29 11
-1.995652e-01 -2.420556e-03 -1.499201e+00 46 20 24
-1.338145e-01 -1.547286e-01 -1.771643e+00 98 35 0
-1.160500e-01 -8.444333e-02 -1.692838e+00 90 34 2
-3.583845e-01 -1.917817e-01 -1.377419e+00 113 44 0
-3.194579e-01 -1.910859e-01 -1.539743e+00 153 88 33
-3.618855e-01 -1.880557e-01 -1.371358e+00 167 99 42
-4.315109e-01 -2.617306e-02 -1.022136e+00 114 49 3
-4.130482e-01 -8.641402e-02 -1.188023e+00 119 58 4
3.779763e-01 -4.637588e-01 -1.503997e+00 47 42 29
1.527958e-01 -2.799362e-01 -1.393695e+00 201 183 146
8.128265e-02 -2.165925e-01 -1.456860e+00 102 95 73
-1.292970e-01 -7.479524e-02 -1.696653e+00 88 32 1
-2.159546e-01 -1.036569e-02 -1.434643e+00 136 36 8
1.846650e-01 -4.744321e-01 -1.781338e+00 33 44 10
1.775099e-01 -2.913471e-01 -1.459061e+00 30 26 15
3.834340e-01 -5.059526e-01 -1.486899e+00 100 87 42
-1.358804e-02 -4.070177e-02 -1.812944e+00 131 39 5
-1.606241e-01 7.800542e-02 -1.752257e+00 94 82 92
-1.331335e-01 -7.229190e-02 -1.385507e+00 165 156 106
-1.597813e-01 6.987323e-02 -1.492049e+00 41 32 42
-2.907295e-04 -2.004880e-01 -1.749081e+00 194 175 133
6.585657e-01 -5.601365e-01 -1.703005e+00 26 26 18
-4.525743e-02 -3.223998e-01 -1.725081e+00 121 92 57
6.729069e-01 -6.827111e-01 -1.651268e+00 68 59 24
5.542229e-02 -2.042117e-01 -1.758910e+00 28 21 3
-1.689964e-01 -2.034614e-01 -1.798269e+00 130 39 3
2.573894e-01 -1.466535e-01 -1.698108e+00 131 124 78
1.105107e-01 -4.701642e-01 -1.701415e+00 40 93 19
3.183749e-02 -3.312000e-02 -1.874588e+00 126 22 3
2.519505e-01 -1.694880e-01 -1.770770e+00 25 21 1
-3.334611e-01 -6.162434e-02 -1.840871e+00 131 45 6
-1.328447e-01 -2.806557e-01 -2.006933e+00 155 104 22
-1.831830e-01 -2.183355e-01 -1.816452e+00 137 87 20
-2.375516e-01 -8.867794e-02 -1.791270e+00 168 84 50
1.570972e-01 -5.209895e-01 -1.720066e+00 17 22 8
-3.400632e-01 -1.381491e-01 -1.933439e+00 118 69 0
-2.412735e-01 -1.223169e-01 -1.831008e+00 155 103 42
-3.701326e-01 -8.097276e-02 -1.890093e+00 146 96 35
-4.000030e-01 -2.036984e-02 -1.912365e+00 99 20 3
2.670944e-01 -4.304936e-01 -1.708309e+00 10 9 4
3.123694e-01 -4.200385e-01 -1.784448e+00 21 18 8
3.949420e-01 -8.733478e-01 -1.587139e+00 157 143 95
-1.110967e-02 6.521898e-03 -1.828183e+00 146 44 6
3.772625e-01 -5.687094e-01 -1.533242e+00 80 75 55
2.408705e-01 -4.576319e-01 -1.725329e+00 128 141 92
5.217015e-01 -7.303353e-01 -1.593759e+00 106 94 55
1.855019e-01 -5.123566e-01 -1.738499e+00 141 165 114
1.814871e-01 -4.878466e-01 -1.737363e+00 198 215 153
1.743967e-01 -4.817608e-01 -1.729522e+00 198 215 153
2.334534e-01 -4.270884e-01 -1.744790e+00 133 118 57
-4.005940e-01 -1.260286e-01 -1.924474e+00 165 111 50
-3.426804e-01 -1.051983e-01 -1.857575e+00 101 53 12
-3.441077e-01 -1.051552e-01 -1.854621e+00 101 53 12
-3.553765e-01 -1.001612e-01 -1.868380e+00 102 51 10
-3.554669e-01 -9.989592e-02 -1.868210e+00 102 51 10
-3.862469e-01 -6.905935e-02 -1.889935e+00 153 96 31
-2.140456e-01 -1.017760e-01 -1.785867e+00 157 99 29
-3.616020e-01 -2.635413e-02 -1.832940e+00 163 89 56
-3.714515e-01 -1.766102e-02 -1.848667e+00 162 87 53
-3.715292e-01 -1.791194e-02 -1.849515e+00 162 87 53
2.925067e-01 -6.785807e-01 -1.538077e+00 69 69 59
-1.096908e-01 -3.632423e-01 -1.969492e+00 90 1 0
-2.420952e-01 -2.962236e-01 -1.938357e+00 104 48 11
-3.726663e-01 -2.355959e-01 -1.940967e+00 91 45 0
-1.046777e-01 -3.000217e-01 -1.929178e+00 87 0 0
-3.886591e-01 -1.898529e-01 -1.937052e+00 153 104 37
-3.247629e-01 -1.988834e-01 -1.897555e+00 151 103 30
-3.184489e-01 -2.005593e-01 -1.895637e+00 150 100 29
-3.999883e-01 -1.830955e-01 -1.942695e+00 146 97 26
-3.568472e-01 -1.862093e-01 -1.908705e+00 150 106 32
-3.568472e-01 -1.862093e-01 -1.908705e+00 150 106 32
-3.688253e-01 -1.814558e-01 -1.914645e+00 154 110 36
-3.748463e-01 -1.781926e-01 -1.920555e+00 152 107 38
-3.754200e-01 -1.779278e-01 -1.919249e+00 152 107 38
-3.444312e-01 -1.585793e-01 -1.885197e+00 149 106 30
-3.036522e-01 -1.584164e-01 -1.857769e+00 143 95 29
-3.375675e-01 -1.373752e-01 -1.871878e+00 114 60 0
-3.375675e-01 -1.373752e-01 -1.871878e+00 114 60 0
-3.526377e-01 -1.316318e-01 -1.880355e+00 111 57 0
-3.532169e-01 -1.316235e-01 -1.879038e+00 111 57 0
-3.516679e-01 -9.322231e-02 -1.864999e+00 152 104 38
-3.663017e-01 -8.641335e-02 -1.869797e+00 148 103 38
-3.501479e-01 -6.763502e-02 -1.853405e+00 85 30 0
-3.362150e-01 -6.682009e-02 -1.835607e+00 161 110 54
-3.519969e-01 -5.945206e-02 -1.847994e+00 156 111 46
-3.766323e-01 -5.381468e-02 -1.864807e+00 92 40 1
-3.766323e-01 -5.381468e-02 -1.864807e+00 92 40 1
-3.827343e-01 -5.014200e-02 -1.874722e+00 157 90 38
-3.614346e-01 -5.510304e-02 -1.854635e+00 162 112 48
-3.464624e-01 -5.699995e-02 -1.831727e+00 134 47 12
-1.033446e-01 -1.324561e-01 -1.816006e+00 133 78 24
-3.585070e-01 -5.044534e-02 -1.840148e+00 129 46 8
-1.076386e-01 -9.834677e-02 -1.787641e+00 66 19 1
-1.062224e-01 -8.826536e-02 -1.772682e+00 125 74 14
-2.516363e-01 -5.569247e-01 -2.106879e+00 172 99 49
-4.283010e-01 -5.516571e-01 -2.236464e+00 177 110 62
-2.311395e-01 -5.631223e-01 -2.158249e+00 101 41 0
-3.901791e-01 -4.490434e-01 -2.034925e+00 109 54 1
-4.269630e-01 -4.468285e-01 -2.063061e+00 156 95 36
-4.269630e-01 -4.468285e-01 -2.063061e+00 156 95 36
-4.637844e-01 -4.898150e-01 -2.227641e+00 99 39 3
-3.918700e-01 -4.387067e-01 -2.038846e+00 159 97 38
-3.884736e-01 -4.419508e-01 -2.048892e+00 159 97 38
-4.326398e-01 -4.766966e-01 -2.189836e+00 111 59 7
-4.052306e-01 -4.727775e-01 -2.161510e+00 156 98 34
-3.710561e-01 -4.697746e-01 -2.130681e+00 99 38 0
-4.350855e-01 -4.449370e-01 -2.123385e+00 155 95 35
-2.388892e-01 -4.865786e-01 -2.084131e+00 148 86 29
-2.130946e-01 -4.999341e-01 -2.099356e+00 155 88 33
-4.461732e-01 -4.067033e-01 -2.073002e+00 105 46 4
-2.557139e-01 -4.723287e-01 -2.083110e+00 98 27 1
-4.529323e-01 -4.331949e-01 -2.177819e+00 96 38 0
-2.367435e-01 -4.653529e-01 -2.072486e+00 145 82 28
-3.970538e-01 -3.847449e-01 -2.022580e+00 91 34 0
-3.526790e-01 -3.914007e-01 -2.001882e+00 158 90 36
-2.695931e-01 -4.019610e-01 -1.995360e+00 101 27 0
-2.590503e-01 -3.977698e-01 -2.024081e+00 98 23 4
-3.743407e-01 -3.507179e-01 -1.994263e+00 113 57 3
-7.848140e-02 -4.769276e-01 -2.083303e+00 102 10 0
-2.522417e-01 -3.966083e-01 -2.021034e+00 152 84 29
-2.573308e-01 -3.925172e-01 -2.007179e+00 152 84 29
-4.337242e-01 -3.011337e-01 -2.016329e+00 94 35 2
-2.043762e-01 -3.284537e-01 -1.961775e+00 150 96 29
-4.742662e-01 -2.782596e-01 -2.125793e+00 153 64 32
-1.012256e-01 -3.581338e-01 -1.972821e+00 131 43 21
-1.132432e-01 -3.422303e-01 -1.954098e+00 91 3 0
-6.144934e-02 -3.727175e-01 -2.014922e+00 78 1 0
-7.770201e-02 -3.592761e-01 -2.003580e+00 86 0 0
-1.811325e-01 -2.993437e-01 -1.935714e+00 115 53 0
-9.495580e-02 -2.987658e-01 -1.933764e+00 80 1 0
-4.787606e-01 -1.996238e-01 -2.096443e+00 112 33 4
-3.758866e-01 -1.961840e-01 -1.929548e+00 154 109 39
-3.758866e-01 -1.961840e-01 -1.929548e+00 154 109 39
-1.841397e-01 -2.372184e-01 -1.887139e+00 77 14 0
-1.838409e-01 -2.209922e-01 -1.875601e+00 77 23 0
-3.091027e-01 -1.696854e-01 -1.875688e+00 148 102 41
-3.769582e-01 -1.426604e-01 -1.907727e+00 147 101 32
-3.138126e-01 -1.545938e-01 -1.865069e+00 143 94 26
-3.547587e-01 -1.382017e-01 -1.886256e+00 150 102 38
-3.627681e-01 -1.252993e-01 -1.888199e+00 109 56 0
-3.524600e-01 -8.632453e-02 -1.858004e+00 87 40 1
-3.524600e-01 -8.632453e-02 -1.858004e+00 87 40 1
-2.555071e-01 -8.952883e-02 -1.793086e+00 126 40 1
-2.504733e-01 -8.947076e-02 -1.793422e+00 128 46 4
-3.178336e-01 -6.953759e-02 -1.824346e+00 130 45 8
-1.147814e-01 -1.336056e-01 -1.813166e+00 123 68 20
-3.669153e-01 -5.036252e-02 -1.862481e+00 155 99 40
-1.025579e-01 -8.095663e-02 -1.775580e+00 82 28 0
-1.044533e-01 -7.566883e-02 -1.774687e+00 146 84 27
4.112950e-01 -8.958807e-01 -1.589118e+00 156 141 100
-2.188180e-01 -5.968178e-01 -2.171176e+00 173 101 48
-3.278584e-01 -5.421478e-01 -2.164364e+00 96 29 0
-4.394079e-01 -5.021677e-01 -2.212369e+00 99 39 6
-4.383462e-01 -4.895914e-01 -2.206421e+00 155 97 42
-2.747131e-01 -4.596243e-01 -2.013049e+00 100 31 3
-4.054562e-01 -4.313157e-01 -2.074775e+00 106 53 1
-4.054562e-01 -4.313157e-01 -2.074775e+00 106 53 1
-4.418099e-01 -4.248685e-01 -2.151706e+00 153 92 35
-3.697518e-01 -3.934399e-01 -2.010195e+00 98 35 0
-4.194395e-01 -3.751391e-01 -2.034195e+00 100 43 1
-2.525755e-01 -4.213969e-01 -2.040756e+00 148 80 34
-4.416900e-01 -3.527129e-01 -2.040434e+00 151 90 38
-1.908901e-01 -3.862592e-01 -2.004156e+00 98 36 1
-4.278534e-01 -2.949209e-01 -2.011533e+00 154 95 33
-4.871187e-01 -2.970380e-01 -2.145936e+00 118 27 2
-2.452653e-01 -3.190098e-01 -1.957409e+00 103 39 0
-1.981301e-01 -3.310735e-01 -1.958869e+00 145 89 28
-2.316415e-01 -3.021644e-01 -1.940673e+00 84 31 0
-2.316415e-01 -3.021644e-01 -1.940673e+00 84 31 0
-3.235185e-01 -2.580732e-01 -1.941744e+00 77 16 3
-3.321695e-01 -2.477152e-01 -1.921659e+00 161 103 40
-4.009824e-01 -2.235905e-01 -1.980172e+00 159 102 46
-5.051213e-01 -1.947133e-01 -2.103558e+00 147 77 41
-3.909665e-01 -1.864051e-01 -1.946268e+00 147 100 30
-1.899660e-01 -2.351311e-01 -1.885950e+00 149 91 41
-2.905654e-01 -1.850643e-01 -1.874387e+00 149 94 30
-3.038749e-01 -1.679097e-01 -1.873349e+00 95 49 1
-4.983184e-01 -1.095016e-01 -2.093991e+00 117 54 11
-2.031064e-01 -1.517941e-01 -1.824597e+00 122 69 3
-1.952935e-01 -1.533777e-01 -1.821969e+00 118 65 4
-1.952935e-01 -1.533777e-01 -1.821969e+00 118 65 4
-3.617983e-01 -6.503461e-02 -1.858835e+00 103 45 0
-3.594419e-01 -5.976645e-02 -1.843013e+00 107 56 0
-4.011211e-01 2.180334e-01 -1.847854e+00 92 82 80
6.188396e-01 -6.691474e-01 -1.596154e+00 190 172 136
-1.821139e-01 -5.895449e-01 -1.713783e+00 24 130 26
-8.629606e-02 -5.569421e-01 -1.718220e+00 28 129 31
-3.331905e-01 -6.374600e-01 -1.710509e+00 22 116 22
-2.376756e-02 -5.427240e-01 -1.708377e+00 27 108 17
2.339582e-02 -5.075956e-01 -1.713954e+00 134 159 89
2.421580e-02 -5.079059e-01 -1.713909e+00 134 159 89
-2.741478e-01 2.496982e-02 -1.880540e+00 84 62 60
-1.810995e-01 -1.088610e-01 -1.802959e+00 100 39 0
-1.810995e-01 -1.088610e-01 -1.802959e+00 100 39 0
-1.991551e-01 -1.328858e-01 -1.761515e+00 108 47 0
-1.977561e-01 -1.344321e-01 -1.795862e+00 117 62 1
-3.529242e-01 -5.962350e-02 -1.831869e+00 157 105 32
-3.533246e-01 -5.551566e-02 -1.817994e+00 157 105 32
-2.782780e-01 2.804002e-02 -1.860982e+00 82 54 53
-2.114481e-01 -1.977283e-01 -1.739299e+00 152 95 25
-1.187994e-01 -1.003739e-01 -1.818708e+00 95 36 0
3.141199e-01 -4.574623e-01 -1.845765e+00 28 25 16
-3.820679e-01 -7.969887e-01 -1.821868e+00 21 119 20
9.937659e-02 -4.660540e-01 -1.715991e+00 157 196 125
-2.703880e-01 -3.439080e-01 -1.787800e+00 149 87 29
-2.786125e-01 -8.777698e-01 -1.938047e+00 80 121 49
-2.312172e-01 -2.838033e-01 -1.780987e+00 149 89 27
-2.342118e-01 -1.912659e-01 -1.735799e+00 104 45 0
-3.843230e-01 -9.030562e-02 -1.810046e+00 180 116 63
-1.245825e-01 -8.039149e-02 -1.800688e+00 94 38 0
3.414202e-01 -7.362818e-01 -1.653032e+00 71 67 50
7.478620e-02 -4.930323e-01 -1.716673e+00 94 125 55
-7.429714e-03 -5.173507e-01 -1.722990e+00 20 103 18
2.581631e-02 -5.096805e-01 -1.715498e+00 122 157 84
1.874529e-01 -4.250983e-01 -1.717909e+00 157 175 113
-2.680289e-02 -5.338042e-01 -1.730741e+00 23 102 15
2.213172e-01 -4.536436e-01 -1.739692e+00 24 107 22
1.524146e-01 -4.750133e-01 -1.729226e+00 12 97 4
-4.388935e-01 -7.031975e-01 -1.736246e+00 70 95 29
-2.331187e-02 -5.414634e-01 -1.729488e+00 25 91 4
6.637690e-02 -5.111019e-01 -1.742878e+00 137 178 110
-4.204975e-01 -7.122629e-01 -1.725959e+00 20 97 14
-4.279907e-01 -6.979353e-01 -1.719174e+00 32 104 12
6.857606e-02 -5.125871e-01 -1.730099e+00 49 138 45
6.857606e-02 -5.125871e-01 -1.730099e+00 49 138 45
-3.579806e-01 -6.866876e-01 -1.739666e+00 63 92 24
-3.373277e-01 -2.024567e-01 -1.937645e+00 116 64 8
-1.679628e-01 -1.236228e-01 -1.873117e+00 89 36 0
-4.466860e-01 -2.074212e-01 -2.078693e+00 150 66 34
-3.492109e-01 -6.641233e-02 -1.867746e+00 153 100 36
-3.710714e-01 -3.305810e-02 -1.866066e+00 165 84 47
-1.134279e-01 -7.027597e-02 -1.721421e+00 133 73 8
2.000721e-01 -3.894796e-01 -1.699151e+00 31 27 9
4.673894e-01 -6.631138e-01 -1.552660e+00 101 88 50
3.627574e-01 -5.803326e-01 -1.534797e+00 89 83 61
1.715439e-01 -4.814999e-01 -1.743243e+00 17 91 6
-3.054230e-01 -1.643989e+00 -2.446301e+00 44 99 27
-2.315597e-01 -1.344731e+00 -2.256904e+00 190 208 149
3.994875e-01 -8.242616e-01 -1.581625e+00 136 125 70
2.540122e-01 -6.589573e-01 -1.879020e+00 22 27 7
1.900925e-01 -5.232286e-01 -1.736541e+00 10 13 5
-1.426916e-01 -1.359435e-01 -1.781806e+00 81 23 1
-2.010774e-01 -1.074789e-01 -1.773863e+00 99 47 12
2.827671e-01 -5.934765e-01 -1.593399e+00 56 56 44
1.579441e-01 -5.465029e-01 -1.770835e+00 24 93 11
-4.329346e-01 -4.510413e-01 -2.098625e+00 163 98 39
-4.754733e-01 -4.302559e-01 -2.099826e+00 174 103 45
-3.400926e-01 -4.046953e-01 -2.016589e+00 110 50 10
-4.642633e-01 -2.469182e-01 -2.282991e+00 151 67 33
-3.566739e-01 -2.013157e-01 -1.957599e+00 103 52 2
-3.605580e-01 -1.936188e-01 -1.914524e+00 103 52 2
-3.623261e-01 -1.946145e-01 -1.987550e+00 154 110 36
-3.911891e-01 -1.700179e-01 -1.926187e+00 151 108 36
-3.916504e-01 -1.692617e-01 -1.923640e+00 151 108 36
-3.392696e-01 -1.784191e-01 -1.895065e+00 149 101 34
-2.804929e-01 -1.806884e-01 -1.867154e+00 147 94 22
-3.458186e-01 -1.495720e-01 -1.885206e+00 103 63 7
-3.630237e-01 -1.372072e-01 -1.867949e+00 97 56 1
-3.418304e-01 -1.217851e-01 -1.869870e+00 110 67 1
-3.788784e-01 -7.527028e-02 -1.844576e+00 150 105 37
-3.788784e-01 -7.527028e-02 -1.844576e+00 150 105 37
1.551466e-01 -2.448264e-01 -1.868644e+00 65 63 51
-1.272612e-01 -1.387747e-01 -1.792041e+00 75 20 0
-3.314007e-01 -5.719598e-02 -1.818358e+00 157 82 43
-1.431864e-01 -9.233242e-02 -1.729668e+00 57 12 0
-4.114823e-01 -1.755114e+00 -2.554445e+00 192 213 155
-3.979413e-01 -1.522046e+00 -2.426940e+00 45 93 25
-4.086937e-01 -4.687937e-01 -2.071326e+00 118 61 14
-4.089197e-01 -4.681211e-01 -2.071045e+00 118 61 14
-4.196195e-01 -4.677502e-01 -2.096036e+00 110 52 8
-4.192674e-01 -4.691691e-01 -2.101702e+00 110 52 8
-2.619312e-01 -4.233653e-01 -1.997299e+00 87 18 1
-4.158435e-01 -3.671462e-01 -2.036224e+00 157 98 33
-3.604645e-01 -3.565781e-01 -1.995754e+00 105 39 0
-3.877408e-01 -3.470189e-01 -2.001143e+00 104 49 4
-3.877408e-01 -3.470189e-01 -2.001143e+00 104 49 4
-3.758364e-01 -4.679617e-01 -2.379178e+00 110 53 0
-4.142360e-01 -3.345899e-01 -2.014730e+00 109 51 0
-4.696674e-01 -3.686581e-01 -2.499006e+00 109 18 1
-3.479354e-01 -1.898563e-01 -1.906081e+00 152 108 34
-3.576074e-01 -1.777966e-01 -1.908731e+00 99 57 2
-2.844568e-01 -1.947857e-01 -1.864089e+00 142 91 26
-4.591620e-01 -1.532995e-01 -2.130643e+00 95 16 1
-3.386867e-01 -9.889006e-02 -1.854559e+00 152 105 36
-2.949182e-01 -1.084143e-01 -1.826085e+00 92 40 0
-2.488562e-01 -1.195002e-01 -1.816920e+00 160 107 51
-3.453977e-01 -8.929602e-02 -1.853221e+00 95 49 1
-2.749074e-01 -8.889817e-02 -1.808377e+00 156 99 37
-2.947018e-01 -7.782440e-02 -1.806706e+00 132 44 15
-1.474662e-01 -9.320091e-02 -1.741941e+00 78 12 0
-3.859024e-01 -1.677693e+00 -2.487607e+00 112 198 99
-3.859024e-01 -1.677693e+00 -2.487607e+00 112 198 99
-2.545938e-01 -1.149899e+00 -2.165714e+00 188 187 145
1.668821e-01 -4.908589e-01 -1.738637e+00 87 160 70
-4.152652e-01 -3.784748e-01 -2.045099e+00 100 43 1
1.926303e-01 -4.068251e-01 -1.688278e+00 43 64 20
-3.344741e-01 -2.461571e-01 -1.924881e+00 114 49 3
-4.747720e-01 -2.551868e-01 -2.336649e+00 106 25 4
-4.747720e-01 -2.551868e-01 -2.336649e+00 106 25 4
-5.087881e-01 -2.229157e-01 -2.407227e+00 119 46 12
-5.220720e-01 -2.175093e-01 -2.481093e+00 122 54 16
-3.916611e-01 -1.622557e-01 -1.930489e+00 94 51 1
-3.144371e-01 -1.666955e-01 -1.873336e+00 81 36 0
-1.946519e-01 -1.852001e-01 -1.846211e+00 96 47 5
-3.307455e-01 -9.854039e-02 -1.847237e+00 140 99 35
-3.793516e-01 -8.534219e-02 -1.884655e+00 92 39 1
-3.426385e-01 -8.569624e-02 -1.850615e+00 149 97 32
7.150966e-01 -7.581602e-01 -1.682964e+00 75 68 42
-2.014024e+00 1.060969e+00 -2.539888e+00 130 118 98
-2.014024e+00 1.060969e+00 -2.539888e+00 130 118 98
2.833977e-01 -1.712122e-01 -1.848461e+00 161 150 112
2.097196e-01 -5.165739e-02 -1.952150e+00 197 179 141
2.097196e-01 -5.165739e-02 -1.952150e+00 197 179 141
1.834395e-01 -1.006790e+00 -1.819116e+00 186 168 128
1.761625e-01 -8.552016e-02 -2.010512e+00 199 181 143
-3.570277e-01 -7.171424e-01 -1.647859e+00 22 102 19
-2.405049e-01 -7.067764e-01 -1.693291e+00 18 96 14
-1.227809e-01 -6.722959e-01 -1.722627e+00 22 94 13
3.951828e-01 -5.805111e-01 -1.553894e+00 34 31 19
3.455550e-01 -5.428578e-01 -1.538590e+00 90 82 59
2.169512e-01 -3.110970e-01 -2.075486e+00 73 68 48
-5.985957e-02 -1.122570e-02 -1.872968e+00 196 115 66
4.310356e-01 -9.388524e-01 -1.614367e+00 158 144 101
3.103352e-01 -8.383079e-01 -1.565470e+00 22 21 2
2.400687e-03 -5.238925e-01 -1.700311e+00 11 85 10
4.506401e-01 -6.328468e-01 -1.572054e+00 54 44 19
1.917413e-01 -5.066655e-01 -1.751465e+00 21 94 19
1.722763e-01 -4.944000e-01 -1.732627e+00 21 94 19
1.834371e-01 -4.887075e-01 -1.755446e+00 18 84 7
2.489719e-01 -4.439600e-01 -1.750333e+00 18 66 4
4.489417e-01 -4.272098e-01 -1.694988e+00 95 89 72
-1.742211e-01 -1.438942e-01 -1.820238e+00 162 105 53
-1.866270e-01 -1.203747e-01 -1.820416e+00 143 85 12
4.775541e-01 -6.794608e-01 -1.576806e+00 74 64 30
-4.409511e-01 -2.789964e-01 -2.006290e+00 166 106 49
1.501481e-01 -4.854913e-01 -1.735803e+00 22 86 8
-1.851799e-01 -3.469177e-01 -1.918975e+00 137 39 7
-2.878113e-01 -2.635108e-01 -1.904391e+00 74 29 6
-2.878113e-01 -2.635108e-01 -1.904391e+00 74 29 6
-3.193251e-01 -2.001804e-01 -1.893373e+00 134 86 20
-3.240040e-01 -1.903188e-01 -1.890619e+00 96 51 17
-4.368660e-01 -1.395000e-01 -1.964328e+00 107 20 10
-4.485276e-01 -1.297462e-01 -1.984999e+00 107 22 1
-2.895124e-01 -1.694776e-01 -1.853178e+00 99 56 14
-3.404781e-01 -1.458815e-01 -1.872292e+00 138 88 26
-3.217403e-01 -1.457235e-01 -1.857848e+00 95 42 2
-3.073963e-01 -1.487016e-01 -1.860099e+00 108 52 10
3.735005e-01 -4.215575e-01 -1.836147e+00 62 59 44
5.193162e-01 -4.773702e-01 -1.616331e+00 199 186 134
4.516633e-01 -3.648943e-01 -1.831582e+00 122 113 86
-1.878649e-01 -1.010074e-01 -1.797164e+00 149 90 24
-1.875662e-01 -1.014991e-01 -1.798185e+00 149 90 24
-3.435480e-01 -3.625170e-02 -1.828903e+00 159 84 51
4.049997e-01 -1.791649e-01 -2.200217e+00 17 14 0
3.934970e-01 -1.712912e-01 -2.206516e+00 209 196 154
-4.413338e-01 -6.916848e-01 -1.595724e+00 169 179 123
-3.703881e-01 -5.062797e-01 -2.038655e+00 164 101 56
2.419983e-01 -6.383678e-01 -1.506104e+00 81 79 67
-4.219584e-01 -4.228050e-01 -2.032092e+00 139 77 24
1.012114e-01 -5.290271e-01 -1.764326e+00 208 220 171
-4.739956e-01 -2.438099e-01 -2.027806e+00 132 52 25
-4.739956e-01 -2.438099e-01 -2.027806e+00 132 52 25
-2.472886e-01 -3.309308e-01 -1.923703e+00 141 85 27
-2.524220e-01 -2.964792e-01 -1.910509e+00 142 84 26
-1.094153e-01 -2.958946e-01 -1.924365e+00 84 0 0
-4.763883e-01 -1.291114e-01 -2.024725e+00 144 57 30
-4.382355e-01 -1.364155e-01 -1.968085e+00 98 10 1
-3.908504e-01 -1.547883e-01 -1.927626e+00 142 91 22
-3.339611e-01 -1.629355e-01 -1.876592e+00 139 90 24
-1.954149e-01 -2.224306e-01 -1.868483e+00 143 91 25
3.587208e-01 -4.342880e-01 -1.777343e+00 38 28 10
-4.354293e-01 -7.699826e-02 -1.957882e+00 137 51 27
3.369920e-01 -4.090729e-01 -1.768769e+00 38 31 17
-4.225368e-01 -7.359995e-02 -1.933768e+00 133 49 24
-4.225368e-01 -7.359995e-02 -1.933768e+00 133 49 24
-4.480164e-01 -5.595786e-02 -1.978646e+00 96 18 0
-3.557778e-01 -8.271626e-02 -1.881848e+00 91 47 3
-3.557778e-01 -8.271626e-02 -1.881848e+00 91 47 3
5.146720e-01 -4.642513e-01 -1.625110e+00 202 188 141
-1.290486e-01 -1.710396e-01 -1.848703e+00 99 40 0
-4.133227e-01 -4.038683e-02 -1.921661e+00 100 18 0
-3.639786e-01 -5.854757e-02 -1.873386e+00 74 25 0
-4.063362e-01 -3.081182e-02 -1.921564e+00 91 19 5
-4.080881e-01 -3.103726e-02 -1.913527e+00 91 19 5
-4.158232e-01 -2.514168e-02 -1.918131e+00 81 12 0
-4.447252e-01 -7.881240e-03 -1.971573e+00 108 26 7
-3.706720e-01 -4.815609e-02 -1.867792e+00 141 84 27
-3.303864e-01 -6.599322e-02 -1.821480e+00 133 38 8
-3.455873e-01 -5.557706e-02 -1.854505e+00 129 39 10
-9.488772e-02 -1.575257e-01 -1.850144e+00 80 20 1
-2.686639e-01 -8.552279e-02 -1.799481e+00 128 33 3
-4.200717e-01 -7.303438e-03 -1.913620e+00 84 17 3
-4.068456e-01 -1.155258e-02 -1.898211e+00 130 59 34
-4.136046e-01 -2.771482e-03 -1.916420e+00 135 58 32
-1.058735e-01 -1.037482e-01 -1.810262e+00 121 70 21
-1.265057e-01 -8.184056e-02 -1.793771e+00 71 10 3
-1.226827e-01 -7.457737e-02 -1.793847e+00 146 83 22
3.268030e-01 -8.045290e-01 -1.546587e+00 158 143 87
3.544172e-01 -8.474783e-01 -1.653366e+00 50 50 40
3.355454e-01 -7.162107e-01 -1.562524e+00 18 18 8
-4.609171e-01 -4.174547e-01 -2.067171e+00 95 34 0
-5.956962e-01 -3.881334e-01 -2.211406e+00 146 84 52
-2.780155e-01 -4.853666e-01 -1.990538e+00 96 36 0
-4.632370e-01 -3.959119e-01 -2.025328e+00 145 86 30
-4.590829e-01 -4.062802e-01 -2.057562e+00 145 86 30
2.984404e-01 -6.625890e-01 -1.536683e+00 20 17 2
-4.603936e-01 -3.665198e-01 -2.020939e+00 86 24 0
-5.277289e-01 -3.327922e-01 -2.091474e+00 114 23 1
-4.416639e-01 -3.401747e-01 -2.020249e+00 97 35 2
-5.126081e-01 -2.401772e-01 -2.082105e+00 105 21 0
-4.828937e-01 -2.369099e-01 -2.040653e+00 133 55 31
-4.828937e-01 -2.369099e-01 -2.040653e+00 133 55 31
-5.201935e-01 -2.199070e-01 -2.077123e+00 138 59 29
-5.201935e-01 -2.199070e-01 -2.077123e+00 138 59 29
-4.982683e-01 -2.231666e-01 -2.043947e+00 139 58 28
-4.640939e-01 -2.322848e-01 -2.014314e+00 134 51 22
-4.654467e-01 -2.296894e-01 -2.003392e+00 134 51 22
-5.187007e-01 -2.111745e-01 -2.072730e+00 102 25 3
-4.645623e-01 -2.210019e-01 -2.008012e+00 97 12 0
-5.056435e-01 -2.060545e-01 -2.053191e+00 107 21 2
-4.206449e-01 -2.306772e-01 -1.962380e+00 82 17 5
-2.645212e-01 -3.004451e-01 -1.912883e+00 152 92 35
-5.376740e-01 -1.854646e-01 -2.111773e+00 109 34 4
-3.455542e-01 -2.495845e-01 -1.930812e+00 153 95 33
1.906000e-01 -4.866277e-01 -1.737366e+00 19 74 9
-5.184671e-01 -1.685163e-01 -2.078329e+00 111 30 1
-5.025099e-01 -1.421473e-01 -2.068808e+00 146 59 32
-3.942679e-01 -1.782954e-01 -1.933128e+00 86 37 1
-4.968612e-01 -1.355051e-01 -2.056515e+00 104 23 0
-4.707966e-01 -1.357154e-01 -2.006405e+00 134 62 33
-4.703421e-01 -1.281326e-01 -2.015721e+00 93 12 2
-3.024503e-01 -1.973240e-01 -1.880428e+00 155 109 47
-4.577124e-01 -1.308081e-01 -1.998985e+00 135 53 23
-4.443111e-01 -1.326845e-01 -1.968013e+00 148 54 29
-4.988893e-01 -9.862281e-02 -2.074935e+00 147 71 37
-5.000636e-01 -9.754295e-02 -2.066350e+00 147 71 37
-2.018567e-01 -2.273350e-01 -1.870839e+00 70 12 6
-5.123718e-01 -9.094466e-02 -2.093076e+00 113 40 7
-5.009282e-01 -8.903726e-02 -2.083516e+00 111 31 2
-2.858581e-01 -1.771880e-01 -1.864327e+00 141 87 21
-1.994781e-01 -2.122733e-01 -1.862829e+00 81 25 5
-4.461824e-01 -1.010924e-01 -1.972814e+00 141 51 24
-4.519043e-01 -9.538667e-02 -1.978548e+00 138 55 27
-4.282014e-01 -1.000318e-01 -1.944043e+00 134 50 27
-3.583349e-01 -1.286023e-01 -1.885120e+00 144 89 26
-4.375281e-01 -9.163652e-02 -1.967663e+00 133 51 27
-3.408160e-01 -1.278819e-01 -1.870250e+00 142 91 27
-3.066629e-01 -1.408426e-01 -1.860329e+00 139 91 19
-1.330909e-01 -2.103876e-01 -1.869457e+00 161 63 34
-4.292433e-01 -6.648619e-02 -1.949438e+00 136 51 30
-4.411965e-01 -5.579686e-02 -1.967999e+00 140 54 31
-4.580087e-01 -3.509786e-02 -1.996367e+00 133 58 29
2.848745e-01 -3.302453e-01 -1.995082e+00 68 66 54
-4.452934e-01 -2.256775e-02 -1.971200e+00 146 58 30
-1.793247e-01 -1.404543e-01 -1.827702e+00 89 30 0
-1.793247e-01 -1.404543e-01 -1.827702e+00 89 30 0
-1.295948e-01 -1.594000e-01 -1.840619e+00 104 48 1
-3.315956e-01 -7.082078e-02 -1.821150e+00 151 105 42
-2.531425e-01 -9.281544e-02 -1.807385e+00 152 95 33
-3.366862e-01 -5.452865e-02 -1.841006e+00 162 79 48
-3.328958e-01 -5.503438e-02 -1.836304e+00 119 35 3
-3.328958e-01 -5.503438e-02 -1.836304e+00 119 35 3
-4.286748e-01 -2.638014e-03 -1.943761e+00 135 59 35
-4.335184e-01 3.923016e-03 -1.954063e+00 132 54 32
-1.817525e-01 -1.125742e-01 -1.804491e+00 76 13 0
-1.761702e-01 -1.143472e-01 -1.814456e+00 76 13 0
-4.547461e-01 2.555270e-02 -1.996874e+00 95 20 1
-4.598779e-01 4.328126e-02 -2.010721e+00 136 73 39
-9.367364e-02 -1.160399e-01 -1.824829e+00 133 79 27
-9.267234e-02 -1.079088e-01 -1.824172e+00 79 18 0
-2.261584e-01 -6.916236e-01 -1.690180e+00 156 186 132
4.895145e-01 -9.616041e-01 -1.629108e+00 151 136 97
1.316936e-02 -5.956014e-01 -1.733777e+00 82 159 79
-4.087945e-01 -4.376574e-01 -1.999620e+00 133 72 26
-6.028837e-01 -3.858712e-01 -2.211265e+00 90 25 8
-4.717167e-01 -3.991573e-01 -2.031568e+00 96 36 1
-3.879744e-01 -4.218897e-01 -1.992757e+00 151 80 32
-3.751969e-01 -3.825245e-01 -1.971567e+00 151 84 33
2.463081e-01 -6.179109e-01 -1.693300e+00 75 75 67
-4.310986e-01 -3.259572e-01 -2.008987e+00 88 34 0
-4.859959e-01 -2.815009e-01 -2.051508e+00 148 55 34
-2.638184e-01 -3.375922e-01 -1.930366e+00 85 19 8
-4.251753e-01 -2.449276e-01 -1.970410e+00 96 28 1
-4.262754e-01 -2.440454e-01 -1.967724e+00 96 28 1
-5.326115e-01 -2.072246e-01 -2.112096e+00 135 61 34
1.629037e-01 -4.987574e-01 -1.777799e+00 58 103 45
-1.860843e-01 -3.432040e-01 -1.919829e+00 125 42 7
-5.290583e-01 -1.901106e-01 -2.125972e+00 142 61 31
-4.579523e-01 -2.085001e-01 -1.996472e+00 100 19 4
-3.999920e-01 -2.254679e-01 -1.952955e+00 74 19 2
-4.936612e-01 -1.698014e-01 -2.049069e+00 136 54 30
-5.217786e-01 -1.442236e-01 -2.113032e+00 113 38 6
-4.424866e-01 -1.687560e-01 -1.972210e+00 98 11 0
-4.748271e-01 -1.506836e-01 -2.012332e+00 140 54 27
2.694563e-01 -4.774990e-01 -1.752003e+00 37 78 24
2.256749e-01 -4.589068e-01 -1.780483e+00 23 34 4
-4.695110e-01 -1.462943e-01 -2.013855e+00 102 13 4
-5.145586e-01 -1.206168e-01 -2.090740e+00 139 66 32
-5.145586e-01 -1.206168e-01 -2.090740e+00 139 66 32
-4.590466e-01 -1.372784e-01 -1.996027e+00 86 11 3
-2.124090e-01 -2.409939e-01 -1.879974e+00 91 36 2
2.819693e-01 -4.618091e-01 -1.756895e+00 173 145 92
-3.208787e-01 -1.862962e-01 -1.883897e+00 137 90 39
2.601435e-01 -4.397694e-01 -1.755129e+00 180 164 103
-4.664346e-01 -1.122897e-01 -2.001587e+00 101 19 0
-3.193316e-01 -1.640980e-01 -1.874578e+00 143 95 44
-3.920732e-01 -1.253254e-01 -1.913244e+00 77 29 1
3.294640e-01 -4.463770e-01 -1.835293e+00 70 65 53
-4.935240e-01 -7.916146e-02 -2.061320e+00 111 24 0
-4.928656e-01 -7.976793e-02 -2.065175e+00 111 24 0
-2.733378e-01 -1.741821e-01 -1.855084e+00 152 97 32
-3.209610e-01 -1.487085e-01 -1.866896e+00 85 30 0
-3.097116e-01 -1.502376e-01 -1.866215e+00 98 45 0
-4.415652e-01 -7.793881e-02 -1.964383e+00 89 5 3
-3.459216e-01 -1.175009e-01 -1.878961e+00 149 102 40
-4.384077e-01 -6.584743e-02 -1.961561e+00 146 60 44
-3.762578e-01 -8.626422e-02 -1.891260e+00 85 34 1
-4.483414e-01 -4.421550e-02 -1.974647e+00 109 20 4
-3.461822e-01 -7.347302e-02 -1.859859e+00 126 74 21
-3.575093e-01 -6.570689e-02 -1.871743e+00 95 35 1
-1.659077e-01 -1.455158e-01 -1.832885e+00 167 108 60
-2.125785e-01 -1.257287e-01 -1.824289e+00 78 28 3
-3.527732e-01 -6.127356e-02 -1.867626e+00 96 44 1
-4.302684e-01 2.642706e-03 -1.946936e+00 78 8 1
-3.669033e-01 -2.045774e-02 -1.858434e+00 162 92 58
-3.701137e-01 -1.410861e-02 -1.860188e+00 168 87 57
4.062171e-01 -2.840180e-01 -1.941567e+00 67 66 47
-4.217952e-01 -7.580530e-01 -1.617949e+00 197 183 144
-3.509706e-01 -6.895638e-01 -1.676492e+00 15 92 15
-2.917515e-03 -8.424508e-01 -1.899460e+00 162 153 106
7.349587e-03 -4.570994e-01 -1.649778e+00 16 88 16
7.349587e-03 -4.570994e-01 -1.649778e+00 16 88 16
-4.084839e-01 -1.593948e-01 -1.940782e+00 159 109 44
-3.405295e-01 -4.021190e-01 -1.989072e+00 105 43 6
1.494871e-01 -4.991227e-01 -1.738212e+00 192 210 148
6.514371e-01 -6.489814e-01 -1.642291e+00 107 95 45
-3.356936e-01 -1.934438e-01 -1.895590e+00 141 97 22
-3.702216e-01 -4.758825e-01 -2.029860e+00 105 43 2
-4.340145e-01 -4.280781e-01 -2.046933e+00 102 48 2
-4.311456e-01 -2.853036e-01 -2.004571e+00 111 52 0
-3.910046e-01 -1.879018e-01 -1.934854e+00 148 97 32
-3.259950e-01 -2.070206e-01 -1.894477e+00 100 47 3
-3.262159e-01 -2.069198e-01 -1.894717e+00 100 47 3
-3.747408e-01 -1.880576e-01 -1.923526e+00 103 51 2
-3.492256e-01 -1.893897e-01 -1.902982e+00 141 97 27
-3.460921e-01 -1.824369e-01 -1.896250e+00 98 52 2
-3.460921e-01 -1.824369e-01 -1.896250e+00 98 52 2
-3.732108e-01 -1.380735e-01 -1.898203e+00 100 60 3
-4.221957e-01 -4.441249e-01 -2.041534e+00 150 88 34
-4.483456e-01 -4.320898e-01 -2.048992e+00 149 88 32
-4.029972e-01 -4.429751e-01 -2.031433e+00 97 42 2
-4.021308e-01 -4.422932e-01 -2.030352e+00 97 42 2
-4.407223e-01 -4.164115e-01 -2.049839e+00 150 90 37
-4.144015e-01 -4.163712e-01 -2.024817e+00 108 49 5
-4.144015e-01 -4.163712e-01 -2.024817e+00 108 49 5
-3.958607e-01 -3.733698e-01 -2.000294e+00 149 88 30
-4.110499e-01 -4.043883e-01 -2.009509e+00 149 90 31
4.495457e-01 -4.137117e-01 -1.785353e+00 32 30 20
1.928207e-01 -5.309430e-01 -1.850867e+00 12 12 6
1.554864e-01 -5.329824e-01 -1.722055e+00 7 10 4
1.703689e-01 -4.988468e-01 -1.707285e+00 9 20 4
-4.214362e-01 -7.521872e-01 -1.715025e+00 177 163 123
-3.748887e-01 -7.567785e-01 -1.716428e+00 14 88 9
-2.726039e-01 -7.076122e-01 -1.721561e+00 22 94 18
-1.082838e-02 -6.058691e-01 -1.768520e+00 39 113 34
2.016634e-01 -4.378903e-01 -1.705465e+00 147 158 105
