ply
format ascii 1.0
element face 0
property list uchar int vertex_indices
element vertex 943
property float x
property float y
property float z
property uchar diffuse_red
property uchar diffuse_green
property uchar diffuse_blue
end_header
-8.369853e-01 6.578183e-02 -2.493159e+00 115 63 1
2.080454e-01 1.007118e-01 -2.443913e+00 137 78 15
2.077810e-01 1.011147e-01 -2.445472e+00 137 78 15
-9.160235e-01 9.095214e-02 -2.508643e+00 119 67 3
1.821203e-01 1.192501e-01 -2.441920e+00 75 23 6
1.831080e-01 1.189489e-01 -2.442166e+00 75 23 6
-8.546437e-01 1.222886e-01 -2.477876e+00 112 66 1
-9.283149e-01 1.184883e-01 -2.524055e+00 160 115 30
3.880768e-01 1.585135e-01 -2.402363e+00 81 28 5
-1.567357e-01 1.505712e-01 -2.367349e+00 100 45 21
-3.655972e-01 1.559377e-01 -2.365416e+00 158 102 20
-4.012945e-01 1.555764e-01 -2.368826e+00 153 100 16
3.291659e-01 1.808921e-01 -2.371114e+00 94 41 19
-9.337044e-02 1.836201e-01 -2.337127e+00 147 87 11
8.231840e-02 1.894259e-01 -2.332153e+00 78 18 1
8.305149e-02 1.891276e-01 -2.337202e+00 78 18 1
-5.285213e-02 1.899242e-01 -2.313170e+00 149 90 14
-5.285213e-02 1.899242e-01 -2.313170e+00 149 90 14
-7.353578e-03 1.936214e-01 -2.339842e+00 147 88 8
8.185507e-02 2.108430e-01 -2.404826e+00 143 84 9
-8.506997e-01 2.025140e-01 -2.498885e+00 169 118 34
1.419654e-01 2.244900e-01 -2.411661e+00 138 78 8
1.427083e-01 2.233914e-01 -2.428453e+00 138 78 8
1.951331e-01 2.372083e-01 -2.443320e+00 142 81 14
1.926907e-01 2.383749e-01 -2.419274e+00 142 81 14
-1.254154e-01 2.306526e-01 -2.365592e+00 148 89 12
-1.254154e-01 2.306526e-01 -2.365592e+00 148 89 12
-9.724796e-01 2.160437e-01 -2.536580e+00 113 65 9
-7.131296e-02 2.373351e-01 -2.335885e+00 152 91 12
-7.198864e-02 2.374058e-01 -2.325523e+00 152 91 12
-9.526963e-01 2.299343e-01 -2.548787e+00 156 111 39
1.597857e-01 2.564893e-01 -2.333272e+00 106 51 19
1.597857e-01 2.564893e-01 -2.333272e+00 106 51 19
3.511190e-01 2.744625e-01 -2.348935e+00 110 59 4
3.511190e-01 2.744625e-01 -2.348935e+00 110 59 4
-9.337899e-01 2.542212e-01 -2.497067e+00 109 64 5
-9.337899e-01 2.542212e-01 -2.497067e+00 109 64 5
-4.093535e-02 2.742301e-01 -2.333283e+00 93 35 15
-4.126154e-02 2.729146e-01 -2.374895e+00 93 35 15
-1.091369e-01 2.925053e-01 -2.342834e+00 146 88 6
2.989223e-01 3.055484e-01 -2.342093e+00 100 43 1
2.943843e-01 3.049009e-01 -2.316772e+00 100 43 1
2.964520e-01 3.045259e-01 -2.328201e+00 100 43 1
3.573288e-01 3.294330e-01 -2.377740e+00 108 57 6
3.488488e-01 3.257590e-01 -2.339519e+00 108 57 6
-5.695601e-01 3.088356e-01 -2.365157e+00 143 45 9
-6.683247e-01 3.126820e-01 -2.434547e+00 147 45 11
-5.971607e-01 3.320587e-01 -2.413619e+00 156 81 44
4.144908e-01 3.644664e-01 -2.404201e+00 107 54 4
2.957101e-01 3.568957e-01 -2.337315e+00 92 36 0
2.953031e-01 3.568455e-01 -2.334516e+00 92 36 0
-9.812198e-01 3.397065e-01 -2.521918e+00 106 57 0
-7.097264e-01 3.454115e-01 -2.402835e+00 156 86 52
1.060763e-01 3.748031e-01 -2.399707e+00 93 43 31
3.574826e-01 3.819005e-01 -2.386744e+00 111 62 13
2.956242e-01 3.856760e-01 -2.349488e+00 149 95 24
-1.315312e-01 3.858139e-01 -2.342028e+00 76 21 6
-6.375930e-02 3.909784e-01 -2.354081e+00 99 48 15
2.827382e-01 4.125046e-01 -2.386199e+00 94 50 11
2.827382e-01 4.125046e-01 -2.386199e+00 94 50 11
-9.245006e-01 3.908892e-01 -2.476446e+00 165 92 51
-1.619480e-01 4.070355e-01 -2.336441e+00 170 108 21
-1.603871e-01 4.079522e-01 -2.336768e+00 170 108 21
-1.161398e+00 5.241356e-01 -2.712217e+00 148 108 63
5.445635e-01 6.926070e-01 -2.534748e+00 163 108 65
-5.497515e-01 1.320004e+00 -2.685836e+00 63 51 71
-1.778648e-01 1.331179e+00 -2.650148e+00 59 50 68
1.917002e-01 1.354016e+00 -2.643730e+00 54 37 43
5.125497e-03 1.329400e+00 -2.608823e+00 116 103 95
-4.487786e-02 1.352125e+00 -2.662872e+00 119 99 98
-7.456421e-02 1.345786e+00 -2.644409e+00 115 100 97
1.246289e-01 1.351029e+00 -2.620996e+00 53 40 56
1.228519e-01 1.345573e+00 -2.609148e+00 53 40 56
-2.716307e-01 1.354509e+00 -2.678401e+00 111 98 98
-2.719149e-01 1.367073e+00 -2.706399e+00 111 98 98
1.028590e+01 3.287940e+00 -5.308647e+00 69 62 54
1.460843e+00 -2.037887e+00 -1.835814e+00 45 27 3
1.593434e+00 -2.048848e+00 -1.843632e+00 66 65 46
1.577128e+00 -2.060971e+00 -1.856096e+00 64 57 36
1.626307e+00 -2.005947e+00 -1.828430e+00 67 68 52
1.783900e+00 -1.835246e+00 -1.840912e+00 85 86 72
1.358836e+00 -1.718318e+00 -1.771111e+00 53 55 44
-9.232751e-01 -1.839030e+00 -2.064971e+00 69 69 21
2.989805e+00 -1.879185e+00 -1.947577e+00 79 74 55
-8.324682e-01 -1.748905e+00 -2.049296e+00 148 165 109
-8.324682e-01 -1.748905e+00 -2.049296e+00 148 165 109
-7.728738e-01 -1.729126e+00 -2.032664e+00 141 156 98
-9.808377e-01 -1.706853e+00 -2.046786e+00 53 110 53
-7.006273e-01 -1.751231e+00 -2.107964e+00 68 86 34
-1.080316e+00 -1.696334e+00 -2.089524e+00 199 192 160
2.933570e+00 -1.723701e+00 -1.902539e+00 41 36 3
-6.153060e-01 -1.652830e+00 -2.023773e+00 154 157 95
1.347273e+00 -1.401643e+00 -1.685738e+00 30 25 10
1.324203e+00 -1.438221e+00 -1.754735e+00 87 85 73
-5.150645e-01 -1.599855e+00 -2.038645e+00 162 174 117
-4.309478e-01 -1.638029e+00 -2.088461e+00 178 172 112
-6.422431e-01 -1.601284e+00 -2.060384e+00 40 101 45
1.321344e+00 -1.445730e+00 -1.783643e+00 72 73 57
1.319333e+00 -1.443134e+00 -1.780884e+00 72 73 57
-1.178437e-01 -1.474957e+00 -2.080415e+00 62 85 7
1.670199e+00 -1.300662e+00 -1.784232e+00 74 72 59
1.708173e+00 -1.213704e+00 -1.746901e+00 82 81 61
1.744741e+00 -1.240102e+00 -1.781866e+00 82 81 61
2.863689e+00 -1.203965e+00 -1.843157e+00 83 75 27
4.397088e-01 -1.209702e+00 -2.058691e+00 60 68 13
7.482270e-02 -1.182572e+00 -2.046300e+00 27 80 19
2.029234e+00 -1.066220e+00 -1.785222e+00 94 89 68
2.029234e+00 -1.066220e+00 -1.785222e+00 94 89 68
8.129306e-01 -1.255334e+00 -2.200276e+00 27 18 2
2.383625e-01 -1.140143e+00 -2.084586e+00 28 82 22
6.107248e-01 -1.112397e+00 -2.050291e+00 133 144 97
6.010614e-01 -1.095623e+00 -2.024622e+00 133 144 97
3.835529e-01 -1.053154e+00 -2.074972e+00 221 235 192
8.193294e-01 -1.014373e+00 -2.043908e+00 8 40 5
7.010916e-01 -9.830125e-01 -2.032647e+00 27 99 5
5.388747e-01 -9.512404e-01 -2.006091e+00 22 75 9
5.410213e-01 -9.721508e-01 -2.059450e+00 216 232 181
8.746829e-01 -9.325421e-01 -2.038780e+00 179 201 136
7.019917e-01 -8.971858e-01 -2.056726e+00 219 240 183
1.087655e+00 -8.803623e-01 -2.023507e+00 81 95 65
8.898311e-01 -8.051512e-01 -2.003179e+00 17 75 0
2.235847e+00 -7.384725e-01 -1.828217e+00 65 52 27
9.227341e-01 -7.902588e-01 -2.011263e+00 22 70 2
-4.370435e-01 -9.602910e-01 -2.416857e+00 97 38 0
5.971504e-01 -9.681618e-01 -2.405146e+00 130 110 81
5.578376e-02 -9.244407e-01 -2.346287e+00 83 3 0
5.578376e-02 -9.244407e-01 -2.346287e+00 83 3 0
-6.421138e-01 -9.274424e-01 -2.417254e+00 98 31 2
1.518356e-01 -9.130425e-01 -2.380275e+00 95 5 3
1.589126e-01 -9.321493e-01 -2.417046e+00 95 5 3
-1.650821e-02 -9.168169e-01 -2.407427e+00 85 1 1
-1.970414e-02 -8.989594e-01 -2.368889e+00 85 1 1
1.040251e+00 -7.577339e-01 -2.047103e+00 11 70 14
-7.405130e-01 -9.259612e-01 -2.483685e+00 92 38 1
-7.474708e-01 -9.001554e-01 -2.483101e+00 157 93 32
-7.474708e-01 -9.001554e-01 -2.483101e+00 157 93 32
-7.882533e-01 -9.048371e-01 -2.519414e+00 159 99 36
-7.828074e-01 -8.934246e-01 -2.494864e+00 159 99 36
-8.109924e-01 -8.734342e-01 -2.482823e+00 157 93 29
-8.109924e-01 -8.734342e-01 -2.482823e+00 157 93 29
-7.755426e-01 -8.635582e-01 -2.482836e+00 98 42 0
-7.740249e-01 -8.619528e-01 -2.475295e+00 98 42 0
-8.861859e-01 -8.979255e-01 -2.556343e+00 110 47 0
-8.862729e-01 -8.967945e-01 -2.551011e+00 110 47 0
-4.202098e-01 -8.081889e-01 -2.345340e+00 148 81 23
2.601911e-01 -8.091185e-01 -2.340936e+00 84 0 0
2.645393e-01 -8.173853e-01 -2.365662e+00 84 0 0
1.184467e+00 -6.941617e-01 -2.051394e+00 155 116 55
1.103016e-01 -8.121768e-01 -2.365017e+00 99 2 2
1.084550e-01 -8.063374e-01 -2.352272e+00 99 2 2
-8.252892e-01 -8.438548e-01 -2.487661e+00 102 43 2
-8.260576e-01 -8.446103e-01 -2.490587e+00 102 43 2
3.234828e-01 -7.804068e-01 -2.309562e+00 113 30 18
-8.904022e-01 -8.515478e-01 -2.528303e+00 158 104 42
1.240897e+00 -6.494735e-01 -1.996503e+00 165 129 66
1.829928e-01 -8.036319e-01 -2.406932e+00 84 0 1
1.829928e-01 -8.036319e-01 -2.406932e+00 84 0 1
1.873339e-01 -8.127280e-01 -2.424858e+00 84 0 1
-7.466978e-01 -8.020545e-01 -2.433869e+00 95 27 0
-7.511264e-01 -8.105348e-01 -2.454689e+00 95 27 0
-8.329669e-01 -8.298681e-01 -2.514254e+00 155 97 31
-8.329669e-01 -8.298681e-01 -2.514254e+00 155 97 31
1.335705e-01 -7.673521e-01 -2.347067e+00 139 40 18
1.342338e-01 -7.677232e-01 -2.347019e+00 139 40 18
-4.231835e-01 -7.583564e-01 -2.343252e+00 144 75 9
-8.969672e-01 -8.186226e-01 -2.517690e+00 111 56 3
-8.221920e-01 -7.884733e-01 -2.472189e+00 110 50 2
-8.221920e-01 -7.884733e-01 -2.472189e+00 110 50 2
2.076932e-01 -7.227652e-01 -2.301170e+00 133 30 14
2.076932e-01 -7.227652e-01 -2.301170e+00 133 30 14
-9.008883e-01 -8.048455e-01 -2.541644e+00 158 101 37
-8.990613e-01 -8.034177e-01 -2.535777e+00 158 101 37
1.810099e-01 -7.525435e-01 -2.400961e+00 86 0 0
-8.726180e-01 -7.804773e-01 -2.507609e+00 114 54 4
-8.724930e-01 -7.803304e-01 -2.508016e+00 114 54 4
2.195729e+00 -6.403103e-01 -2.089807e+00 36 29 9
2.963383e-01 -7.710637e-01 -2.488475e+00 135 40 23
2.970303e-01 -7.701029e-01 -2.486169e+00 135 40 23
-6.204338e-01 -7.272905e-01 -2.401458e+00 96 33 0
-6.206156e-01 -7.286758e-01 -2.401518e+00 96 33 0
-6.267647e-01 -7.407572e-01 -2.435351e+00 96 33 0
-4.317612e-01 -7.087510e-01 -2.351565e+00 147 80 19
2.639444e-01 -7.168671e-01 -2.389996e+00 88 0 0
-4.477541e-01 -6.824623e-01 -2.359340e+00 83 21 0
-4.524061e-01 -6.971892e-01 -2.396386e+00 83 21 0
-3.043360e-01 -6.729502e-01 -2.340677e+00 118 41 1
-4.369412e-01 -6.657174e-01 -2.368920e+00 146 79 16
-4.988755e-01 -6.660829e-01 -2.376855e+00 154 91 23
-4.988755e-01 -6.660829e-01 -2.376855e+00 154 91 23
-8.841175e-01 -6.855901e-01 -2.523389e+00 109 56 1
-8.829155e-01 -6.831255e-01 -2.518129e+00 109 56 1
4.913253e-02 -5.824706e-01 -2.323194e+00 73 1 0
5.233171e-02 -5.865856e-01 -2.345322e+00 73 1 0
5.411443e-02 -5.984586e-01 -2.372456e+00 73 1 0
-7.598380e-01 -6.131633e-01 -2.464204e+00 105 35 0
-3.115873e-01 -5.774959e-01 -2.356311e+00 111 43 1
1.210434e-01 -5.688545e-01 -2.337203e+00 66 2 1
1.216117e-01 -5.699456e-01 -2.339960e+00 66 2 1
-5.231946e-01 -5.792085e-01 -2.386664e+00 104 34 0
-5.231946e-01 -5.792085e-01 -2.386664e+00 104 34 0
-7.850695e-01 -6.121145e-01 -2.480310e+00 104 46 1
-7.850695e-01 -6.121145e-01 -2.480310e+00 104 46 1
6.847135e-02 -5.783588e-01 -2.372675e+00 138 39 22
-3.553065e-01 -5.728293e-01 -2.382831e+00 153 89 17
-3.563287e-01 -5.748625e-01 -2.391507e+00 153 89 17
-8.208011e-01 -6.079012e-01 -2.503447e+00 100 40 0
-8.154359e-01 -6.033247e-01 -2.484049e+00 100 40 0
-6.002985e-02 -5.504473e-01 -2.316101e+00 88 8 4
-5.860156e-02 -5.582343e-01 -2.343716e+00 88 8 4
-9.309703e-01 -6.219668e-01 -2.558275e+00 109 47 1
-8.153923e-01 -5.892276e-01 -2.509119e+00 154 94 23
2.131143e-02 -5.408162e-01 -2.340165e+00 71 5 1
-2.001896e-02 -5.260217e-01 -2.329697e+00 146 48 16
-2.679891e-01 -5.235869e-01 -2.334695e+00 178 119 73
2.201824e+00 -5.396855e-01 -2.351820e+00 38 26 12
1.515367e-01 -5.398032e-01 -2.410312e+00 72 3 3
1.442167e-01 -5.243498e-01 -2.362582e+00 72 3 3
-5.220763e-01 -5.175716e-01 -2.355524e+00 99 31 1
-5.220763e-01 -5.175716e-01 -2.355524e+00 99 31 1
-3.555519e-01 -5.135468e-01 -2.353560e+00 159 94 25
-1.496990e-02 -5.047210e-01 -2.350056e+00 83 3 0
9.307537e-02 -4.829830e-01 -2.277367e+00 135 37 20
2.620965e-01 -5.105008e-01 -2.376601e+00 129 33 19
2.620965e-01 -5.105008e-01 -2.376601e+00 129 33 19
1.477906e-01 -5.351922e-01 -2.468047e+00 131 32 9
1.457383e-01 -5.318827e-01 -2.464981e+00 131 32 9
2.155005e-01 -5.068010e-01 -2.378708e+00 80 0 5
2.155005e-01 -5.068010e-01 -2.378708e+00 80 0 5
8.391599e-02 -5.118331e-01 -2.429644e+00 72 0 0
8.411930e-02 -5.129641e-01 -2.434536e+00 72 0 0
2.466253e-01 -4.953113e-01 -2.389932e+00 66 0 4
2.530599e-01 -4.601266e-01 -2.291690e+00 76 5 6
2.530599e-01 -4.601266e-01 -2.291690e+00 76 5 6
-1.693876e-01 -4.812602e-01 -2.375010e+00 143 35 4
-1.693876e-01 -4.812602e-01 -2.375010e+00 143 35 4
-3.154784e-01 -4.718017e-01 -2.346873e+00 123 56 4
-3.150787e-01 -4.704987e-01 -2.342782e+00 123 56 4
-3.154784e-01 -4.718017e-01 -2.346873e+00 123 56 4
3.226525e-01 -5.138444e-01 -2.518148e+00 78 1 5
3.078724e-01 -4.490735e-01 -2.385071e+00 135 38 22
3.095212e-01 -4.519600e-01 -2.395702e+00 135 38 22
-4.681678e-01 -4.316543e-01 -2.372795e+00 84 26 0
4.728720e-01 -4.349930e-01 -2.376443e+00 116 24 0
-3.856860e-01 -4.228070e-01 -2.398621e+00 156 97 21
-4.474032e-01 -4.088229e-01 -2.352705e+00 156 99 23
3.924555e-01 -4.037184e-01 -2.347636e+00 78 0 1
3.924555e-01 -4.037184e-01 -2.347636e+00 78 0 1
3.304645e-01 -4.102805e-01 -2.382790e+00 79 0 1
-5.199635e-01 -4.138742e-01 -2.398282e+00 158 99 23
3.809980e-01 -3.904336e-01 -2.353858e+00 129 38 21
3.820920e-01 -3.906186e-01 -2.356381e+00 129 38 21
1.477117e-01 -3.821036e-01 -2.324140e+00 70 4 0
1.495920e-01 -3.848779e-01 -2.335742e+00 70 4 0
-6.052041e-02 -3.744532e-01 -2.317389e+00 78 3 4
3.703694e-01 -3.828835e-01 -2.378871e+00 67 0 0
3.703694e-01 -3.828835e-01 -2.378871e+00 67 0 0
2.065339e-01 -3.703319e-01 -2.338874e+00 67 3 1
1.322468e-01 -3.940554e-01 -2.438660e+00 136 40 19
1.547959e-01 -3.655791e-01 -2.355987e+00 133 40 24
1.519793e-01 -3.611167e-01 -2.336093e+00 133 40 24
1.951781e+00 -3.638409e-01 -2.353398e+00 38 29 3
4.024395e-01 -3.643136e-01 -2.391300e+00 82 0 1
3.784658e-01 -3.412091e-01 -2.291382e+00 82 0 1
2.678866e-01 -3.415826e-01 -2.325126e+00 77 0 0
2.646628e-01 -3.385243e-01 -2.310911e+00 77 0 0
2.264756e-02 -3.419995e-01 -2.331189e+00 137 39 14
2.264756e-02 -3.419995e-01 -2.331189e+00 137 39 14
7.922121e-01 -3.693795e-01 -2.495193e+00 49 39 30
7.877964e-02 -3.282003e-01 -2.320460e+00 141 37 21
-3.544986e-02 -3.224000e-01 -2.308280e+00 78 8 9
-3.544986e-02 -3.224000e-01 -2.308280e+00 78 8 9
1.098652e-01 -3.142817e-01 -2.300063e+00 135 33 11
1.098652e-01 -3.142817e-01 -2.300063e+00 135 33 11
2.220720e-01 -3.264309e-01 -2.376924e+00 77 5 2
2.095856e-01 -3.105138e-01 -2.303171e+00 77 5 2
-5.813533e-01 -3.249711e-01 -2.400422e+00 76 28 3
2.556017e-01 -2.742520e-01 -2.326106e+00 136 33 12
2.556017e-01 -2.742520e-01 -2.326106e+00 136 33 12
2.881685e-01 -2.705749e-01 -2.357916e+00 132 38 14
-8.040733e-01 -3.022180e-01 -2.500189e+00 83 28 0
-8.043111e-01 -3.023441e-01 -2.498970e+00 83 28 0
3.979327e-01 -3.043990e-01 -2.560752e+00 74 2 0
3.979327e-01 -3.043990e-01 -2.560752e+00 74 2 0
2.665691e-01 -2.428217e-01 -2.313483e+00 65 1 0
1.974600e+00 -2.860665e-01 -2.574759e+00 15 5 0
3.453210e-01 -2.429458e-01 -2.361832e+00 127 36 17
3.453210e-01 -2.429458e-01 -2.361832e+00 127 36 17
-4.941250e-03 -2.268015e-01 -2.334294e+00 137 29 1
-9.602623e-01 -2.425287e-01 -2.565189e+00 123 70 4
5.142537e-01 -1.828172e-01 -2.399648e+00 146 109 60
-3.337482e-01 -1.809800e-01 -2.366867e+00 78 12 0
-3.684107e-01 -1.744008e-01 -2.345992e+00 83 24 1
-3.684574e-01 -1.743061e-01 -2.344478e+00 83 24 1
1.093318e+00 -1.509601e-01 -2.321329e+00 40 34 22
9.841707e-02 -1.131490e-01 -2.330164e+00 161 65 31
9.867278e-02 -1.137782e-01 -2.333524e+00 161 65 31
-9.256300e-01 -1.462644e-01 -2.530653e+00 157 109 33
3.033249e-01 -1.088791e-01 -2.334717e+00 161 67 39
-1.597257e-01 -1.045178e-01 -2.339007e+00 179 90 53
-1.595710e-01 -1.047453e-01 -2.338500e+00 179 90 53
1.594266e-02 -8.528254e-02 -2.325363e+00 165 72 38
-5.917888e-01 -6.778066e-02 -2.359592e+00 114 54 0
-9.501631e-01 -9.124994e-02 -2.566977e+00 163 119 41
-9.503589e-01 -9.102270e-02 -2.566403e+00 163 119 41
-4.214717e-01 -5.483261e-02 -2.394642e+00 151 103 25
-1.052560e+00 -7.171226e-02 -2.604975e+00 127 56 12
3.060423e-03 -1.660272e-02 -2.312589e+00 174 121 76
-7.216816e-01 -1.342615e-02 -2.442866e+00 101 60 3
-7.249657e-01 1.125826e-02 -2.457477e+00 155 105 25
-8.900643e-01 3.821755e-03 -2.505437e+00 164 117 36
-7.983979e-01 3.057341e-02 -2.470558e+00 148 100 21
4.327452e-01 5.014682e-02 -2.437401e+00 163 78 41
-5.953404e-02 5.254447e-02 -2.330156e+00 152 97 21
1.643111e-01 7.007940e-02 -2.341985e+00 84 29 5
1.643111e-01 7.007940e-02 -2.341985e+00 84 29 5
7.936591e-02 6.814234e-02 -2.426535e+00 148 88 22
1.533253e-01 8.784592e-02 -2.430641e+00 140 79 13
-7.675073e-01 7.285750e-02 -2.516023e+00 159 107 24
1.712561e-01 9.920040e-02 -2.356816e+00 136 77 17
1.684859e-01 9.982891e-02 -2.345389e+00 136 77 17
2.049570e-01 1.121050e-01 -2.320699e+00 143 83 13
2.044302e-01 1.121678e-01 -2.317723e+00 143 83 13
-8.293508e-01 8.931769e-02 -2.490728e+00 159 110 29
2.265678e-01 1.298000e-01 -2.453472e+00 81 18 5
2.121546e-01 1.350758e-01 -2.358783e+00 81 18 5
3.180597e-01 1.334972e-01 -2.484535e+00 144 85 25
3.591200e-01 1.459245e-01 -2.376804e+00 78 17 0
3.591200e-01 1.459245e-01 -2.376804e+00 78 17 0
3.262214e-01 1.550883e-01 -2.356308e+00 132 73 14
3.262214e-01 1.550883e-01 -2.356308e+00 132 73 14
-9.003556e-01 1.343139e-01 -2.507066e+00 120 79 5
3.053466e-01 1.573320e-01 -2.479233e+00 75 19 4
3.569687e-01 1.675100e-01 -2.377570e+00 136 75 19
3.573291e-01 1.678022e-01 -2.380425e+00 136 75 19
-9.312333e-01 1.707619e-01 -2.521982e+00 157 106 32
2.072067e-02 1.987400e-01 -2.333299e+00 147 86 19
7.532287e-02 2.123891e-01 -2.340800e+00 142 83 7
7.583929e-02 2.123552e-01 -2.344554e+00 142 83 7
-3.016088e-01 2.102108e-01 -2.358343e+00 185 117 62
-7.255851e-01 2.065311e-01 -2.412876e+00 90 39 0
-8.735531e-01 2.130179e-01 -2.475367e+00 160 112 36
-7.902973e-01 2.169793e-01 -2.434326e+00 93 45 0
-7.902973e-01 2.169793e-01 -2.434326e+00 93 45 0
-9.017829e-01 2.194619e-01 -2.484244e+00 164 117 40
-9.033566e-01 2.192056e-01 -2.488875e+00 164 117 40
-3.532041e-01 2.390373e-01 -2.381431e+00 65 0 1
-3.532041e-01 2.390373e-01 -2.381431e+00 65 0 1
-4.385667e-01 2.842407e-01 -2.351893e+00 173 121 49
-5.995314e-01 3.084903e-01 -2.375738e+00 144 43 9
-6.408630e-01 3.127464e-01 -2.432396e+00 144 44 10
2.928579e-01 3.305737e-01 -2.316505e+00 151 98 23
3.556665e-01 3.524126e-01 -2.380313e+00 157 103 34
-8.925181e-01 3.351593e-01 -2.514691e+00 178 134 74
-9.378254e-01 3.467056e-01 -2.590066e+00 180 133 66
-9.378254e-01 3.467056e-01 -2.590066e+00 180 133 66
-8.508715e-01 3.454361e-01 -2.451600e+00 147 49 17
-9.532021e-01 3.534509e-01 -2.496790e+00 180 129 69
-9.302860e-01 3.656396e-01 -2.528592e+00 147 50 15
-9.579752e-01 3.742385e-01 -2.531459e+00 148 57 15
-9.852432e-01 3.867978e-01 -2.531410e+00 146 61 16
-9.852432e-01 3.867978e-01 -2.531410e+00 146 61 16
-1.041610e-01 4.171231e-01 -2.340751e+00 170 119 42
-7.314206e-02 4.206994e-01 -2.346808e+00 176 126 57
-5.277246e-03 4.348373e-01 -2.366518e+00 177 130 68
3.609362e-01 5.425284e-01 -2.335891e+00 177 124 61
4.812597e-01 7.828963e-01 -2.424829e+00 134 23 0
-1.219451e+00 9.567607e-01 -2.855374e+00 222 197 160
-9.992720e-02 1.288536e+00 -2.597124e+00 60 47 65
7.471478e-02 1.273486e+00 -2.506116e+00 55 40 56
-2.002357e-02 1.325704e+00 -2.646110e+00 57 44 63
-1.236770e-01 1.332327e+00 -2.643985e+00 56 44 63
1.686449e-01 1.302390e+00 -2.533452e+00 53 36 42
1.685550e-01 1.299617e+00 -2.522953e+00 53 36 42
1.783635e-01 1.330849e+00 -2.595343e+00 53 36 42
-2.571345e-02 1.303753e+00 -2.541774e+00 119 105 97
-2.571345e-02 1.303753e+00 -2.541774e+00 119 105 97
4.095692e-01 1.298078e+00 -2.446970e+00 121 106 108
-1.973576e-01 1.366166e+00 -2.690666e+00 114 100 99
-1.974708e-01 1.335657e+00 -2.612182e+00 114 100 99
4.603308e-01 1.328231e+00 -2.521306e+00 34 20 28
4.609410e-01 1.325903e+00 -2.506685e+00 34 20 28
-1.094491e+00 1.531759e+00 -2.970021e+00 100 86 91
1.415742e+00 -1.997992e+00 -1.806298e+00 103 87 60
2.485317e+00 -2.048767e+00 -1.891028e+00 39 33 10
1.347400e+00 -1.781499e+00 -1.764494e+00 44 44 34
2.941282e+00 -1.963348e+00 -1.925515e+00 32 29 0
-9.469045e-01 -1.844640e+00 -2.080604e+00 133 154 99
-9.355688e-01 -1.816330e+00 -2.053256e+00 133 154 99
-8.436577e-01 -1.761656e+00 -2.047040e+00 64 92 44
-8.237140e-01 -1.775610e+00 -2.066572e+00 58 77 29
-1.076870e+00 -1.766279e+00 -2.084157e+00 215 227 165
-1.026823e+00 -1.751094e+00 -2.070416e+00 24 106 19
-1.028269e+00 -1.721722e+00 -2.040819e+00 158 219 137
-1.019559e+00 -1.738147e+00 -2.074899e+00 74 161 68
1.346277e+00 -1.535375e+00 -1.750826e+00 69 68 51
1.346164e+00 -1.534663e+00 -1.750459e+00 69 68 51
-6.770373e-01 -1.750368e+00 -2.114497e+00 62 78 20
-6.770373e-01 -1.750368e+00 -2.114497e+00 62 78 20
1.422523e+00 -1.563348e+00 -1.836551e+00 34 31 16
1.454293e+00 -1.510988e+00 -1.781594e+00 84 81 74
1.357378e+00 -1.475641e+00 -1.754767e+00 98 94 67
1.500910e+00 -1.288942e+00 -1.758994e+00 72 70 58
1.496131e+00 -1.284153e+00 -1.753400e+00 72 70 58
-3.267603e-01 -1.395689e+00 -2.019112e+00 63 83 15
1.350672e+00 -1.247533e+00 -1.811716e+00 88 86 73
1.240317e+00 -1.217640e+00 -1.812091e+00 22 19 10
1.265078e+00 -1.239375e+00 -1.859894e+00 78 75 59
-1.209142e-01 -1.150672e+00 -1.822483e+00 136 223 128
-1.160919e-01 -1.342669e+00 -2.086437e+00 136 223 128
1.214456e+00 -1.223688e+00 -1.862470e+00 64 62 47
1.204218e+00 -1.237790e+00 -1.890792e+00 77 75 62
-2.980728e-02 -1.295830e+00 -2.057600e+00 46 93 40
1.059224e+00 -1.225003e+00 -1.938271e+00 15 13 2
-1.267828e-01 -1.263989e+00 -2.074736e+00 205 195 160
2.746485e+00 -1.124414e+00 -1.852320e+00 70 63 53
5.291894e-01 -1.176940e+00 -2.064993e+00 52 73 11
2.057148e-01 -1.174671e+00 -2.081795e+00 53 144 46
2.223636e-01 -1.138236e+00 -2.048864e+00 97 170 81
2.227806e-01 -1.128345e+00 -2.078963e+00 206 222 179
6.277997e-01 -1.120608e+00 -2.049573e+00 36 47 5
6.249999e-01 -1.115248e+00 -2.041044e+00 36 47 5
2.515472e-01 -1.119578e+00 -2.091858e+00 58 87 35
1.164316e+00 -1.030797e+00 -1.933724e+00 51 48 41
4.776668e-01 -1.062223e+00 -2.042045e+00 61 75 14
3.427889e-01 -1.049149e+00 -2.050258e+00 54 96 44
3.956272e-01 -1.052899e+00 -2.064023e+00 23 67 14
7.860245e-01 -1.042620e+00 -2.039804e+00 15 31 1
4.067358e-01 -1.034015e+00 -2.068849e+00 50 94 30
5.471808e-01 -9.982122e-01 -2.129029e+00 109 99 52
7.866246e-01 -9.387258e-01 -2.059362e+00 52 98 35
7.999210e-01 -9.146093e-01 -2.033711e+00 59 77 20
7.066807e-01 -8.916790e-01 -2.031905e+00 27 75 19
2.574487e+00 -9.011698e-01 -1.988477e+00 211 196 157
8.102741e-01 -8.680360e-01 -2.015595e+00 93 176 76
7.502287e-01 -8.552483e-01 -1.995132e+00 18 74 1
9.826063e-01 -8.765190e-01 -2.043588e+00 41 85 17
-5.057624e-01 -1.007035e+00 -2.389116e+00 183 118 71
-5.542060e-01 -9.920535e-01 -2.375129e+00 182 122 74
8.649159e-01 -8.164131e-01 -2.025670e+00 24 76 22
-4.013063e-01 -9.723834e-01 -2.399696e+00 92 24 1
-3.402709e-01 -9.542511e-01 -2.373735e+00 96 30 0
1.437476e-02 -9.525346e-01 -2.381008e+00 95 3 0
9.487531e-01 -7.872974e-01 -2.019623e+00 14 79 3
-4.877989e-01 -9.631865e-01 -2.438372e+00 157 96 39
-4.872958e-01 -9.510474e-01 -2.413409e+00 157 96 39
-7.953997e-01 -9.571034e-01 -2.453529e+00 186 125 77
4.987608e-01 -9.617783e-01 -2.459957e+00 81 34 6
1.124561e+00 -7.693431e-01 -2.029545e+00 64 82 19
1.124456e+00 -7.695038e-01 -2.029554e+00 64 82 19
1.169527e-01 -8.985849e-01 -2.351823e+00 92 1 3
7.637100e-02 -8.891602e-01 -2.333743e+00 140 41 28
1.116425e-01 -9.261908e-01 -2.434516e+00 142 45 27
1.130719e-01 -9.274695e-01 -2.434728e+00 142 45 27
1.115104e+00 -7.234204e-01 -2.004182e+00 187 188 115
-4.590439e-01 -8.543600e-01 -2.393890e+00 97 30 2
-2.961503e-01 -8.350970e-01 -2.369317e+00 115 48 0
-4.628827e-01 -8.338982e-01 -2.384418e+00 101 32 2
1.147473e+00 -7.032982e-01 -2.036280e+00 202 189 129
1.142172e+00 -6.982953e-01 -2.026320e+00 202 189 129
-5.095365e-01 -8.343820e-01 -2.427785e+00 154 88 20
-9.102048e-01 -8.633280e-01 -2.529014e+00 116 57 2
2.324052e+00 -7.153377e-01 -2.089150e+00 53 44 10
-7.665946e-01 -8.402795e-01 -2.479975e+00 161 95 32
-3.000317e-01 -7.862147e-01 -2.372545e+00 116 46 0
-3.002385e-01 -7.859458e-01 -2.372432e+00 116 46 0
2.271317e+00 -6.779590e-01 -2.044970e+00 209 194 150
-4.630253e-01 -7.810323e-01 -2.372644e+00 80 12 0
-4.640770e-01 -7.835206e-01 -2.377660e+00 80 12 0
-3.444147e-01 -7.648905e-01 -2.356932e+00 151 86 28
-3.446923e-01 -7.678288e-01 -2.363825e+00 151 86 28
-7.716097e-01 -7.845053e-01 -2.462844e+00 154 92 28
-9.201962e-01 -8.101246e-01 -2.545808e+00 121 61 5
-4.684867e-01 -7.513758e-01 -2.396715e+00 83 18 2
-4.646526e-01 -7.394348e-01 -2.367314e+00 83 18 2
-3.019017e-01 -7.271611e-01 -2.348830e+00 122 50 0
1.448072e+00 -6.191738e-01 -2.043864e+00 51 42 14
1.670187e-01 -7.166516e-01 -2.328899e+00 92 2 1
1.471463e+00 -5.996363e-01 -2.004575e+00 122 116 96
1.450004e+00 -5.880738e-01 -1.976512e+00 122 116 96
1.482850e+00 -6.191058e-01 -2.061360e+00 38 31 6
-3.476908e-01 -7.207873e-01 -2.372260e+00 153 87 28
-8.594076e-01 -7.559924e-01 -2.488416e+00 162 101 36
1.475184e+00 -6.312974e-01 -2.101224e+00 80 75 55
1.469393e+00 -6.273206e-01 -2.094364e+00 80 75 55
1.507933e+00 -6.113230e-01 -2.064468e+00 29 22 5
-4.148253e-01 -7.047201e-01 -2.362089e+00 80 14 1
-9.227231e-01 -7.479679e-01 -2.498253e+00 180 117 62
-9.222294e-01 -7.483180e-01 -2.496445e+00 180 117 62
-3.349658e-01 -6.999338e-01 -2.360887e+00 94 23 3
-3.347098e-01 -6.957428e-01 -2.351964e+00 94 23 3
-8.898906e-01 -7.406019e-01 -2.494631e+00 156 103 36
-7.458078e-01 -7.077510e-01 -2.438696e+00 99 37 0
-3.522312e-01 -6.836022e-01 -2.404367e+00 145 79 23
-8.070690e-01 -7.040496e-01 -2.479380e+00 98 36 0
-8.037121e-01 -6.980536e-01 -2.465437e+00 98 36 0
-4.220365e-01 -6.688463e-01 -2.404804e+00 81 11 1
-9.186414e-01 -6.965457e-01 -2.517947e+00 114 56 1
-7.956453e-01 -6.779999e-01 -2.462025e+00 160 97 30
-9.044512e-01 -6.865037e-01 -2.511787e+00 161 102 43
-4.989054e-01 -6.331468e-01 -2.374858e+00 158 97 35
-4.989054e-01 -6.331468e-01 -2.374858e+00 158 97 35
-8.369058e-01 -6.693946e-01 -2.485716e+00 162 100 32
-5.201324e-01 -6.250296e-01 -2.379837e+00 109 35 6
-5.201324e-01 -6.250296e-01 -2.379837e+00 109 35 6
-8.684388e-01 -6.665586e-01 -2.511920e+00 159 101 36
-3.553867e-01 -6.187404e-01 -2.376071e+00 147 83 20
-4.924184e-01 -5.793250e-01 -2.386739e+00 105 39 3
1.860365e-01 -5.599457e-01 -2.353781e+00 88 0 0
-7.662585e-01 -5.895357e-01 -2.457971e+00 157 91 23
4.718298e-02 -5.472708e-01 -2.324387e+00 79 1 0
-8.417523e-01 -5.944541e-01 -2.498842e+00 108 52 1
-8.411993e-01 -5.938865e-01 -2.497027e+00 108 52 1
1.184034e-01 -5.441896e-01 -2.333676e+00 139 40 18
-2.546437e-01 -5.351947e-01 -2.334296e+00 127 42 4
4.975673e-01 -5.672595e-01 -2.428445e+00 131 77 60
-8.808634e-01 -5.801850e-01 -2.513023e+00 105 49 1
-8.820939e-01 -5.811118e-01 -2.516596e+00 105 49 1
-8.343980e-01 -5.622019e-01 -2.469402e+00 162 96 28
-5.081878e-01 -5.337749e-01 -2.387400e+00 161 98 43
-5.082085e-01 -5.341908e-01 -2.388569e+00 161 98 43
-9.070355e-01 -5.714969e-01 -2.518689e+00 109 53 4
-5.529228e-02 -5.138286e-01 -2.331235e+00 85 3 0
-5.529228e-02 -5.138286e-01 -2.331235e+00 85 3 0
-9.284879e-01 -5.522038e-01 -2.524684e+00 111 52 4
-9.001268e-01 -5.461731e-01 -2.504564e+00 166 108 38
1.886614e+00 -4.364264e-01 -2.121774e+00 87 87 69
3.056431e-01 -5.390593e-01 -2.503433e+00 132 38 22
-1.202457e-01 -4.828667e-01 -2.344421e+00 126 31 1
-4.967924e-01 -4.893480e-01 -2.388497e+00 83 17 0
-4.967924e-01 -4.893480e-01 -2.388497e+00 83 17 0
-5.329878e-01 -4.968479e-01 -2.416848e+00 98 34 6
-1.056817e-01 -4.728603e-01 -2.349227e+00 183 98 61
-2.254968e-01 -4.808339e-01 -2.373433e+00 138 40 5
-5.124503e-01 -4.808215e-01 -2.382051e+00 160 100 37
-5.131788e-01 -4.821824e-01 -2.386450e+00 160 100 37
-5.638550e-01 -4.813290e-01 -2.395167e+00 162 96 27
-3.606280e-01 -4.553084e-01 -2.336039e+00 151 91 20
-3.609934e-01 -4.589794e-01 -2.349399e+00 151 91 20
1.915855e-01 -4.531819e-01 -2.327760e+00 76 0 0
3.237757e-01 -4.679129e-01 -2.391156e+00 88 0 2
3.237403e-01 -4.681302e-01 -2.391374e+00 88 0 2
-3.725604e-01 -4.368039e-01 -2.361522e+00 81 18 0
-3.736458e-01 -4.483294e-01 -2.398196e+00 81 18 0
-5.355209e-01 -4.487309e-01 -2.422714e+00 101 37 3
5.502832e-01 -4.673180e-01 -2.481728e+00 140 119 74
-5.464693e-01 -4.370512e-01 -2.387441e+00 158 94 23
-5.182239e-01 -4.377743e-01 -2.411639e+00 164 106 34
-5.340472e-01 -4.206740e-01 -2.377624e+00 107 41 1
-5.351619e-01 -4.229012e-01 -2.388678e+00 107 41 1
-3.606372e-01 -4.018321e-01 -2.331619e+00 153 96 25
-9.460290e-01 -4.447459e-01 -2.511188e+00 187 120 64
-9.445523e-01 -4.435442e-01 -2.504960e+00 187 120 64
-4.350119e-01 -4.026077e-01 -2.377928e+00 83 21 1
1.192883e-01 -3.776897e-01 -2.285958e+00 68 1 2
3.973977e-01 -3.875570e-01 -2.346545e+00 92 2 0
4.052822e-01 -3.950295e-01 -2.380996e+00 92 2 0
2.967588e-02 -3.769426e-01 -2.317091e+00 77 0 1
-3.873274e-01 -3.802858e-01 -2.360896e+00 158 99 27
-4.028276e-01 -3.779624e-01 -2.363884e+00 114 51 0
1.844320e+00 -3.527848e-01 -2.248398e+00 65 58 42
-3.219773e-01 -3.804083e-01 -2.385982e+00 120 54 0
1.350168e-01 -3.593562e-01 -2.346972e+00 78 0 0
9.857444e-02 -3.606007e-01 -2.347621e+00 76 0 0
-5.549255e-03 -3.401873e-01 -2.312793e+00 140 52 27
-4.137332e-03 -3.433449e-01 -2.326216e+00 140 52 27
7.176311e-01 -3.498063e-01 -2.365738e+00 45 35 25
1.865502e+00 -3.196182e-01 -2.264582e+00 213 199 157
9.635478e-02 -3.379879e-01 -2.334639e+00 86 0 0
-1.016482e+00 -3.867932e-01 -2.550892e+00 128 61 16
2.259315e-01 -3.341064e-01 -2.340520e+00 135 47 31
1.887048e+00 -3.261777e-01 -2.317410e+00 47 35 14
5.301065e-01 -3.419740e-01 -2.416278e+00 154 130 85
1.330473e-01 -3.124374e-01 -2.311366e+00 141 41 27
1.888642e+00 -3.085056e-01 -2.328322e+00 215 200 151
1.833662e+00 -2.965707e-01 -2.287957e+00 58 47 22
1.198949e-01 -3.070154e-01 -2.375319e+00 67 0 3
4.957331e-02 -2.994460e-01 -2.337118e+00 88 5 2
1.897823e+00 -3.025143e-01 -2.383874e+00 45 34 14
-1.024745e+00 -3.486746e-01 -2.576349e+00 133 63 21
-7.534555e-01 -3.079728e-01 -2.480647e+00 169 111 40
3.333211e-01 -2.551869e-01 -2.379882e+00 131 41 28
3.731576e-01 -2.907281e-01 -2.552780e+00 131 41 28
-3.296905e-01 -2.521806e-01 -2.360904e+00 74 14 2
-3.291361e-01 -2.492107e-01 -2.347676e+00 74 14 2
1.887710e+00 -2.549298e-01 -2.439591e+00 219 205 159
-3.149130e-01 -2.444850e-01 -2.350852e+00 164 114 32
1.824688e+00 -2.474380e-01 -2.437593e+00 59 48 31
-3.506627e-01 -2.341168e-01 -2.357233e+00 169 122 55
3.735831e-01 -2.355901e-01 -2.392217e+00 130 36 24
3.735831e-01 -2.355901e-01 -2.392217e+00 130 36 24
-3.831789e-01 -2.416397e-01 -2.405411e+00 165 117 52
-3.812698e-01 -2.364735e-01 -2.376888e+00 165 117 52
1.181614e-01 -2.107194e-01 -2.289596e+00 155 62 31
1.234605e-01 -2.169826e-01 -2.324304e+00 155 62 31
-4.015057e-01 -2.232164e-01 -2.365149e+00 99 42 3
-6.460554e-02 -2.040527e-01 -2.295317e+00 174 78 42
-6.460554e-02 -2.040527e-01 -2.295317e+00 174 78 42
-3.332052e-01 -2.020154e-01 -2.376914e+00 72 3 0
-3.875877e-01 -1.844353e-01 -2.379326e+00 168 112 51
-3.866594e-01 -1.828891e-01 -2.368049e+00 168 112 51
2.570919e-01 -1.742350e-01 -2.341010e+00 156 59 34
-4.048642e-01 -1.790689e-01 -2.400049e+00 92 27 7
1.027515e+00 -1.502908e-01 -2.276152e+00 218 204 177
-1.056136e+00 -1.992883e-01 -2.604585e+00 138 76 32
-3.337561e-01 -1.455341e-01 -2.355891e+00 72 14 2
-3.331338e-01 -1.445729e-01 -2.346923e+00 72 14 2
-9.006770e-01 -1.667064e-01 -2.546178e+00 161 112 41
-3.910078e-01 -1.296399e-01 -2.374483e+00 165 116 46
-3.910078e-01 -1.296399e-01 -2.374483e+00 165 116 46
-5.019346e-01 -1.341190e-01 -2.404196e+00 83 39 0
4.044933e-02 -1.062308e-01 -2.319173e+00 128 29 0
-6.846122e-01 -1.270061e-01 -2.449131e+00 92 47 0
-5.313055e-02 -9.668671e-02 -2.351784e+00 135 37 2
3.393261e-01 -8.821656e-02 -2.323055e+00 155 55 32
-3.359166e-01 -9.707998e-02 -2.381130e+00 101 33 1
-8.606646e-02 -8.043525e-02 -2.310862e+00 144 41 6
-4.042403e-01 -8.239210e-02 -2.371921e+00 96 33 1
4.089236e-01 -7.310170e-02 -2.358880e+00 125 25 0
-3.899940e-01 -7.762439e-02 -2.367471e+00 158 101 28
3.825588e-02 -6.704441e-02 -2.307704e+00 179 78 46
-7.913796e-01 -8.711507e-02 -2.471378e+00 108 56 6
-7.845343e-01 -8.371070e-02 -2.442956e+00 108 56 6
-1.065611e+00 -1.064960e-01 -2.610354e+00 135 73 26
1.295578e+00 -5.140650e-02 -2.367236e+00 217 204 179
-4.330547e-01 -7.250565e-02 -2.391158e+00 115 56 2
-9.578384e-01 -8.509555e-02 -2.510414e+00 122 73 3
-8.381775e-01 -7.462752e-02 -2.475146e+00 104 57 5
-3.377926e-01 -4.338783e-02 -2.364823e+00 70 12 0
-3.380686e-01 -4.320548e-02 -2.366396e+00 70 12 0
3.322245e-01 -2.896589e-02 -2.338848e+00 154 56 32
-1.334375e-02 -3.048678e-02 -2.309191e+00 135 39 7
-1.188665e-01 -3.656740e-02 -2.358268e+00 175 111 58
4.879574e-01 -3.082405e-02 -2.374504e+00 178 115 72
2.478334e-01 -1.248938e-02 -2.291663e+00 160 69 40
2.557897e-01 -1.695318e-02 -2.333009e+00 160 69 40
-9.854397e-01 -4.946548e-02 -2.547255e+00 186 132 74
-9.854397e-01 -4.946548e-02 -2.547255e+00 186 132 74
-3.797773e-01 -1.779120e-02 -2.386941e+00 93 37 2
-3.787402e-01 -1.602067e-02 -2.363640e+00 93 37 2
-7.369362e-01 -2.351958e-02 -2.435424e+00 155 111 41
-1.909714e-01 -6.454306e-03 -2.328508e+00 189 119 57
-1.055573e+00 -2.860249e-02 -2.556574e+00 170 107 61
-3.514459e-02 1.150455e-02 -2.337146e+00 150 87 18
3.606686e-01 1.657212e-02 -2.387385e+00 158 65 40
4.975609e-01 2.525498e-02 -2.414873e+00 187 125 81
-3.007858e-02 2.937081e-02 -2.334703e+00 74 14 11
-8.545867e-02 2.934318e-02 -2.319626e+00 154 99 35
-1.445735e-02 3.534042e-02 -2.327981e+00 157 99 26
9.550810e-02 3.868608e-02 -2.337313e+00 142 83 29
9.550810e-02 3.868608e-02 -2.337313e+00 142 83 29
4.466363e-03 4.091835e-02 -2.325699e+00 88 15 1
3.649219e-03 4.161747e-02 -2.315636e+00 88 15 1
3.681814e-02 4.765216e-02 -2.305916e+00 72 12 1
-8.716344e-01 2.250462e-02 -2.487155e+00 104 63 9
-6.349774e-01 3.416191e-02 -2.432684e+00 112 55 3
-7.857541e-01 3.728021e-02 -2.478207e+00 103 47 1
-4.183588e-02 5.929392e-02 -2.318699e+00 149 91 25
-8.692902e-02 7.387880e-02 -2.334712e+00 163 108 51
-8.655931e-02 7.308273e-02 -2.340609e+00 163 108 51
-3.659818e-01 7.857496e-02 -2.387370e+00 165 113 33
-3.651861e-01 7.900570e-02 -2.378050e+00 165 113 33
8.461307e-02 9.003152e-02 -2.316297e+00 76 14 1
4.536062e-03 8.920267e-02 -2.327989e+00 94 16 0
4.747384e-03 8.935280e-02 -2.329509e+00 94 16 0
2.207217e-02 9.130830e-02 -2.330995e+00 154 92 31
-3.956811e-01 8.211451e-02 -2.383853e+00 167 113 36
-3.957897e-01 8.190416e-02 -2.383677e+00 167 113 36
3.974177e-01 1.009490e-01 -2.385300e+00 127 28 0
-8.791160e-01 7.846633e-02 -2.492491e+00 120 65 1
-8.745710e-01 8.085137e-02 -2.474868e+00 120 65 1
-7.721009e-01 8.820396e-02 -2.406711e+00 167 116 36
3.106809e-01 1.100929e-01 -2.501068e+00 84 24 2
3.118869e-01 1.092450e-01 -2.496514e+00 84 24 2
-3.448452e-01 1.158135e-01 -2.372818e+00 73 4 0
-3.449189e-01 1.159649e-01 -2.372384e+00 73 4 0
2.244011e-01 1.347058e-01 -2.335915e+00 152 90 37
-8.728275e-01 1.099699e-01 -2.525178e+00 118 71 0
2.398879e-01 1.406442e-01 -2.337936e+00 88 25 0
-3.837778e-01 1.608375e-01 -2.373270e+00 163 106 30
-4.171443e-01 1.600892e-01 -2.382074e+00 155 104 23
4.178694e-01 1.822954e-01 -2.465570e+00 159 102 43
-3.751406e-01 1.788382e-01 -2.370948e+00 85 33 0
-4.191608e-01 1.816671e-01 -2.370381e+00 68 9 1
-4.341980e-01 1.827715e-01 -2.371916e+00 167 117 44
4.449486e-01 2.012607e-01 -2.398597e+00 105 53 1
3.585974e-01 1.978793e-01 -2.361274e+00 89 28 1
-6.024215e-01 1.817626e-01 -2.440145e+00 91 34 4
-6.300628e-02 1.944011e-01 -2.302228e+00 150 92 25
-4.116275e-01 1.995196e-01 -2.386438e+00 154 98 29
-7.688341e-01 1.943593e-01 -2.486968e+00 93 41 0
-7.698021e-01 1.930937e-01 -2.430193e+00 158 105 34
-2.894448e-01 2.191397e-01 -2.368472e+00 133 39 2
-1.003034e+00 2.232949e-01 -2.542511e+00 177 117 53
-1.003034e+00 2.232949e-01 -2.542511e+00 177 117 53
-9.191591e-01 2.283234e-01 -2.494297e+00 153 109 36
-1.074372e+00 2.336017e-01 -2.592510e+00 133 68 23
2.992654e-01 2.808480e-01 -2.322146e+00 153 100 32
3.040207e-01 2.822927e-01 -2.348105e+00 153 100 32
-3.119646e-01 2.827616e-01 -2.353339e+00 175 97 39
-1.014924e+00 2.750415e-01 -2.580390e+00 179 119 57
-1.023169e+00 2.739493e-01 -2.609108e+00 179 119 57
-5.797552e-01 2.917913e-01 -2.437301e+00 175 116 48
-5.824392e-01 2.910592e-01 -2.363093e+00 172 117 50
-6.418255e-01 2.934578e-01 -2.404994e+00 174 120 51
-4.569691e-01 2.996172e-01 -2.414395e+00 139 36 0
9.057381e-03 3.164981e-01 -2.306457e+00 145 90 17
-1.602792e-01 3.294722e-01 -2.340819e+00 75 11 1
4.046383e-01 3.505849e-01 -2.366341e+00 108 54 1
1.456637e-01 3.577123e-01 -2.410571e+00 150 92 37
-2.078486e-01 3.503165e-01 -2.340298e+00 181 118 53
1.262364e-01 3.684742e-01 -2.334838e+00 66 9 4
1.841355e-01 3.789976e-01 -2.417832e+00 152 104 45
-1.775785e-01 3.667996e-01 -2.343019e+00 63 2 0
-6.089468e-02 3.823838e-01 -2.355841e+00 69 7 0
-1.113092e-01 3.858390e-01 -2.362972e+00 157 103 36
-1.134831e-01 3.827262e-01 -2.339465e+00 157 103 36
-7.995081e-02 3.950140e-01 -2.343666e+00 158 104 44
-5.964553e-02 4.033294e-01 -2.346120e+00 82 29 2
-5.974166e-02 4.026138e-01 -2.337592e+00 82 29 2
4.205079e-01 4.351929e-01 -2.353129e+00 128 71 5
2.072538e-01 4.839650e-01 -2.349563e+00 178 126 61
2.438032e-01 4.957687e-01 -2.343509e+00 173 119 57
-1.019433e+00 4.916364e-01 -2.558991e+00 180 104 65
-1.020011e+00 4.916075e-01 -2.560513e+00 180 104 65
4.801239e-01 5.868271e-01 -2.388012e+00 183 119 75
-1.661474e-01 6.073202e-01 -2.383806e+00 159 51 5
-1.608823e-01 6.395728e-01 -2.490290e+00 253 188 140
-1.518491e-01 6.771503e-01 -2.493324e+00 206 115 71
-2.353722e-01 7.404693e-01 -2.364323e+00 56 54 68
-2.353722e-01 7.404693e-01 -2.364323e+00 56 54 68
-1.905869e-01 7.555792e-01 -2.418448e+00 121 116 123
-1.895309e-01 7.580460e-01 -2.422718e+00 121 116 123
-1.529249e-01 7.486739e-01 -2.356931e+00 184 177 184
-1.538304e-01 7.458200e-01 -2.344133e+00 184 177 184
-6.742787e-01 7.705332e-01 -2.528072e+00 71 68 82
4.360379e-01 8.741337e-01 -2.462617e+00 150 70 42
4.094366e-01 8.675966e-01 -2.435312e+00 70 3 0
4.443540e-01 9.107397e-01 -2.431606e+00 101 72 61
-3.014030e-01 4.984514e-01 -7.094647e-01 46 45 59
-1.305390e-01 6.005554e-01 -9.724788e-01 45 43 57
-2.616670e-03 1.271768e+00 -2.541368e+00 56 43 58
-2.728393e-01 1.314753e+00 -2.684285e+00 60 49 64
-3.264642e-01 1.283203e+00 -2.607648e+00 56 42 62
-7.853887e-02 1.267763e+00 -2.498210e+00 59 45 61
-6.945545e-01 1.357879e+00 -2.771062e+00 107 97 106
9.067060e-02 1.344685e+00 -2.627033e+00 124 112 116
8.402518e-02 1.321865e+00 -2.577318e+00 124 112 116
-7.179506e-01 1.393631e+00 -2.830961e+00 58 45 65
1.534348e-01 1.326051e+00 -2.568491e+00 61 44 54
1.534348e-01 1.326051e+00 -2.568491e+00 61 44 54
-1.224782e+00 1.372516e+00 -2.817711e+00 205 187 151
-2.293574e-01 1.378631e+00 -2.710531e+00 115 102 104
-2.270031e-01 1.369245e+00 -2.685306e+00 115 102 104
-9.061572e-01 1.391229e+00 -2.792924e+00 65 47 52
-7.920506e-01 1.426389e+00 -2.853315e+00 58 44 61
-7.925780e-01 1.424920e+00 -2.851624e+00 58 44 61
-8.303114e-01 1.414629e+00 -2.800517e+00 58 45 65
4.841234e-01 1.336687e+00 -2.473241e+00 215 197 159
4.718115e-01 1.408526e+00 -2.586725e+00 63 48 43
4.780924e-01 1.417250e+00 -2.601497e+00 63 48 43
-8.520013e-01 1.546373e+00 -2.846073e+00 32 23 47
-7.492875e-01 1.583311e+00 -2.868984e+00 28 24 43
-4.609602e-01 1.662014e+00 -2.946217e+00 46 34 35
-4.586103e-01 1.623232e+00 -2.847421e+00 172 158 154
4.784530e+00 2.511154e+00 -3.435789e+00 58 52 32
-1.017456e+00 -1.785147e+00 -2.013789e+00 158 163 122
-8.443873e-01 -1.721000e+00 -2.016703e+00 156 177 130
-1.082758e+00 -1.756681e+00 -2.067257e+00 154 144 99
-7.697145e-01 -1.715269e+00 -2.076056e+00 45 116 47
-9.893072e-01 -1.693867e+00 -2.080289e+00 147 173 90
-6.185633e-01 -1.670227e+00 -2.044389e+00 150 156 92
-8.801833e-01 -1.723307e+00 -2.137439e+00 62 154 68
1.452879e+00 -1.487086e+00 -1.785667e+00 76 73 59
1.473750e+00 -1.476683e+00 -1.792058e+00 69 66 49
1.465173e+00 -1.277086e+00 -1.754804e+00 65 64 50
1.497450e+00 -1.304757e+00 -1.790520e+00 65 64 50
-3.246253e-01 -1.433893e+00 -2.086744e+00 201 232 147
1.271713e+00 -1.188896e+00 -1.723971e+00 33 31 19
1.262731e+00 -1.222606e+00 -1.825335e+00 88 86 73
2.848190e+00 -1.214428e+00 -1.823379e+00 135 126 76
1.047359e+00 -1.228569e+00 -1.940481e+00 68 66 53
1.694661e-01 -1.241367e+00 -2.057533e+00 59 106 43
1.598983e-02 -1.227453e+00 -2.097055e+00 59 93 52
2.557251e-01 -1.170615e+00 -2.029754e+00 126 209 117
3.556995e-02 -1.200973e+00 -2.087606e+00 201 195 166
5.123922e-01 -1.208814e+00 -2.089066e+00 137 137 79
2.026571e-01 -1.187514e+00 -2.079305e+00 15 120 17
9.472155e-02 -1.189442e+00 -2.093885e+00 65 96 49
2.240855e+00 -9.342479e-01 -1.771566e+00 75 71 59
3.698147e-01 -1.059029e+00 -2.072603e+00 72 107 57
3.596469e-01 -1.056184e+00 -2.081053e+00 174 170 133
5.476846e-01 -1.030218e+00 -2.043233e+00 23 118 18
8.178654e-01 -1.031655e+00 -2.038711e+00 91 104 65
8.181856e-01 -1.031525e+00 -2.039567e+00 91 104 65
1.255080e+00 -9.877209e-01 -1.950767e+00 96 94 81
1.263941e+00 -9.941983e-01 -1.962992e+00 96 94 81
7.701400e-01 -1.014700e+00 -2.033048e+00 29 73 10
1.288730e+00 -9.681238e-01 -1.943757e+00 82 80 66
5.798897e-01 -9.790671e-01 -2.055019e+00 91 155 62
6.019851e-01 -9.760988e-01 -2.051294e+00 188 212 124
8.485474e-01 -9.587054e-01 -2.029551e+00 48 103 43
9.785866e-01 -9.552959e-01 -2.033949e+00 66 81 58
1.351362e+00 -9.215891e-01 -1.959652e+00 57 55 43
1.348501e+00 -9.187801e-01 -1.955586e+00 57 55 43
8.982987e-01 -9.333453e-01 -2.015910e+00 132 161 102
9.067771e-01 -9.245299e-01 -2.011845e+00 23 71 5
8.693414e-01 -9.172409e-01 -2.000884e+00 160 184 124
7.536884e-01 -9.139344e-01 -2.035818e+00 180 220 141
8.278417e-01 -9.248738e-01 -2.077556e+00 171 199 126
6.784550e-01 -9.029097e-01 -2.061283e+00 157 181 116
7.789309e-01 -8.777073e-01 -2.013863e+00 44 88 6
1.438961e+00 -8.570074e-01 -1.962365e+00 58 56 44
8.594767e-01 -8.691020e-01 -2.006944e+00 51 110 43
7.068815e-01 -8.864044e-01 -2.071903e+00 22 18 0
1.062969e+00 -8.744711e-01 -2.059594e+00 154 184 124
9.555483e-01 -8.359119e-01 -2.019617e+00 66 80 19
1.218505e+00 -8.275462e-01 -2.028764e+00 89 78 60
9.665735e-01 -8.134288e-01 -2.025637e+00 51 106 25
1.528527e+00 -7.738741e-01 -1.938257e+00 93 91 78
9.562217e-01 -8.041944e-01 -2.025790e+00 138 190 103
-4.652452e-01 -9.541976e-01 -2.388638e+00 105 39 2
-4.632478e-01 -9.460999e-01 -2.371308e+00 105 39 2
-3.565702e-01 -9.503815e-01 -2.388797e+00 152 89 30
-4.986851e-01 -9.463039e-01 -2.381818e+00 107 40 4
-5.017415e-01 -9.573946e-01 -2.406601e+00 107 40 4
-4.968300e-01 -9.435564e-01 -2.375667e+00 107 40 4
1.155923e+00 -7.957173e-01 -2.018844e+00 181 208 155
-3.179088e-01 -9.300279e-01 -2.352802e+00 102 37 1
-3.414927e-01 -9.319791e-01 -2.359605e+00 94 30 0
1.189238e+00 -8.046557e-01 -2.045487e+00 108 113 70
-3.686635e-01 -9.391814e-01 -2.381255e+00 125 58 2
-3.686635e-01 -9.391814e-01 -2.381255e+00 125 58 2
-5.158820e-01 -9.582014e-01 -2.434757e+00 153 88 24
-4.659672e-01 -9.277178e-01 -2.376994e+00 108 43 4
-4.623282e-01 -9.152736e-01 -2.350647e+00 108 43 4
1.206292e+00 -7.941538e-01 -2.035064e+00 98 75 37
-4.987518e-01 -9.343941e-01 -2.398507e+00 116 47 8
1.160842e+00 -7.778220e-01 -2.016030e+00 186 194 137
1.104503e-01 -9.395873e-01 -2.403400e+00 139 45 30
6.343057e-01 -1.021020e+00 -2.574335e+00 140 118 88
9.364206e-02 -9.130665e-01 -2.370938e+00 101 5 2
1.170111e+00 -7.478346e-01 -2.001988e+00 180 168 119
-8.912668e-01 -9.887552e-01 -2.587730e+00 178 106 56
-2.522687e-03 -9.011327e-01 -2.375270e+00 146 56 37
1.136127e+00 -7.486688e-01 -2.015198e+00 104 123 61
1.109572e+00 -7.491447e-01 -2.017723e+00 199 221 148
-4.211684e-01 -8.637330e-01 -2.380510e+00 145 80 23
-3.842638e-01 -8.747991e-01 -2.407712e+00 122 48 3
-3.209530e-01 -8.413855e-01 -2.340346e+00 102 34 2
-4.358570e-01 -8.621887e-01 -2.390924e+00 92 30 0
-3.248475e-01 -8.383096e-01 -2.366718e+00 96 29 3
-4.804193e-01 -8.502913e-01 -2.412883e+00 156 95 40
-5.248024e-01 -8.379826e-01 -2.384546e+00 154 84 28
-7.313818e-01 -8.731386e-01 -2.471370e+00 102 42 2
1.109931e+00 -7.042877e-01 -2.051604e+00 76 118 53
2.345179e-01 -8.189795e-01 -2.351689e+00 88 6 6
-3.301023e-01 -8.098433e-01 -2.377912e+00 96 27 2
-3.275159e-01 -7.997562e-01 -2.351370e+00 96 27 2
-4.070952e-01 -8.035106e-01 -2.360805e+00 86 17 2
-4.368580e-01 -8.052167e-01 -2.372444e+00 89 27 1
-4.790107e-01 -7.890036e-01 -2.384603e+00 157 93 42
-8.333385e-01 -8.042395e-01 -2.447024e+00 116 59 10
2.011325e-01 -7.740555e-01 -2.338243e+00 89 1 2
-8.848881e-01 -8.491382e-01 -2.591028e+00 153 99 37
1.828409e+00 -6.210396e-01 -1.972081e+00 75 73 60
1.845160e+00 -6.284057e-01 -1.989880e+00 75 73 60
-9.397987e-01 -8.209270e-01 -2.565302e+00 178 111 57
1.603321e-01 -7.500122e-01 -2.379652e+00 134 37 21
1.799107e+00 -5.864685e-01 -1.934162e+00 70 68 56
-5.065707e-01 -7.436056e-01 -2.396931e+00 155 84 25
-1.106184e+00 -8.498819e-01 -2.736038e+00 138 93 51
1.501240e+00 -6.293950e-01 -2.106155e+00 74 71 53
-4.782070e-01 -6.858838e-01 -2.357172e+00 97 27 3
-7.368340e-01 -7.223621e-01 -2.464818e+00 159 94 41
-7.317093e-01 -7.142866e-01 -2.443534e+00 159 94 41
1.536558e+00 -6.017588e-01 -2.096996e+00 71 68 58
1.536080e+00 -6.014997e-01 -2.096445e+00 71 68 58
-7.262733e-01 -7.183666e-01 -2.470827e+00 113 46 4
-8.836954e-01 -7.050765e-01 -2.520686e+00 160 100 40
-8.911812e-01 -6.509311e-01 -2.510182e+00 164 105 39
1.761069e+00 -5.221876e-01 -2.099412e+00 91 89 77
-4.186861e-01 -5.775247e-01 -2.347978e+00 103 42 6
1.687878e-02 -5.557231e-01 -2.297411e+00 141 42 22
-7.833678e-01 -6.048637e-01 -2.475103e+00 108 48 1
-4.353929e-02 -5.472910e-01 -2.301015e+00 154 62 44
-4.257367e-02 -5.559785e-01 -2.327006e+00 154 62 44
-5.642740e-02 -5.464564e-01 -2.326264e+00 98 12 4
-1.988153e-01 -5.610307e-01 -2.371924e+00 180 82 47
-3.675082e-01 -5.485830e-01 -2.358621e+00 96 29 1
1.356891e-01 -5.267498e-01 -2.311161e+00 129 36 19
1.388585e-01 -5.373695e-01 -2.345090e+00 129 36 19
-9.083276e-01 -5.811103e-01 -2.496080e+00 160 107 36
-9.215949e-01 -5.943506e-01 -2.542097e+00 160 107 36
5.020628e-02 -5.180821e-01 -2.302637e+00 87 11 4
-8.361508e-02 -5.150384e-01 -2.330200e+00 91 0 0
-8.190970e-02 -5.255697e-01 -2.366469e+00 91 0 0
-3.601497e-01 -5.346285e-01 -2.400815e+00 159 96 34
8.089135e-02 -5.116476e-01 -2.355998e+00 136 43 28
6.983995e-03 -5.248988e-01 -2.414534e+00 141 54 34
4.884302e-02 -4.963003e-01 -2.334701e+00 82 2 1
2.382949e-01 -4.979418e-01 -2.361999e+00 80 1 0
1.835450e-01 -4.925981e-01 -2.349556e+00 95 6 2
3.286170e-01 -4.644900e-01 -2.297543e+00 95 2 2
-2.110096e-01 -4.691994e-01 -2.317526e+00 140 53 17
-9.229410e-01 -5.236667e-01 -2.527473e+00 124 62 3
-9.229410e-01 -5.236667e-01 -2.527473e+00 124 62 3
2.353608e-01 -4.744320e-01 -2.350789e+00 79 1 0
3.224927e-01 -4.911153e-01 -2.430169e+00 131 37 24
-2.637607e-01 -4.725033e-01 -2.373076e+00 126 48 5
1.806552e-01 -4.617505e-01 -2.352467e+00 135 46 28
-3.445350e-01 -4.619700e-01 -2.357942e+00 158 99 25
7.091472e-01 -4.895167e-01 -2.440374e+00 51 44 36
1.994460e+00 -4.444527e-01 -2.264790e+00 60 54 41
1.673376e-01 -4.463502e-01 -2.329611e+00 104 3 4
-9.394518e-01 -5.007921e-01 -2.543072e+00 116 56 1
2.487167e-01 -4.362849e-01 -2.328605e+00 95 9 5
-5.001782e-01 -4.452268e-01 -2.387024e+00 99 35 1
-1.444598e-01 -4.422881e-01 -2.381206e+00 126 34 1
-3.582935e-01 -4.277089e-01 -2.336810e+00 150 92 48
-1.015056e+00 -4.963256e-01 -2.584588e+00 133 56 13
1.890065e+00 -3.981515e-01 -2.197528e+00 57 53 42
-4.871679e-01 -4.378352e-01 -2.381146e+00 161 105 46
-3.876917e-01 -4.331599e-01 -2.384078e+00 159 101 32
-4.955820e-01 -4.153513e-01 -2.357393e+00 107 45 8
2.898872e-01 -3.996032e-01 -2.321957e+00 89 3 0
-1.528093e-01 -4.015356e-01 -2.374415e+00 135 45 11
-5.015958e-01 -4.059972e-01 -2.389867e+00 152 95 28
-4.643698e-01 -3.999112e-01 -2.380762e+00 85 28 0
-9.292574e-01 -4.382252e-01 -2.533920e+00 167 104 32
-1.040974e+00 -4.587402e-01 -2.613257e+00 163 99 55
-3.582065e-02 -3.835973e-01 -2.324728e+00 74 1 1
5.382173e-01 -4.142907e-01 -2.445687e+00 151 129 87
-4.887156e-01 -3.941740e-01 -2.379712e+00 99 45 3
1.060854e-01 -3.796039e-01 -2.324728e+00 83 0 0
-5.345942e-01 -3.894914e-01 -2.379825e+00 99 42 1
-7.727145e-02 -3.677643e-01 -2.316203e+00 144 41 25
-1.734908e-01 -3.799178e-01 -2.420651e+00 132 48 12
-1.054584e-01 -3.823489e-01 -2.413409e+00 181 87 53
-1.037971e-01 -3.850835e-01 -2.424958e+00 181 87 53
8.072752e-02 -3.492750e-01 -2.310964e+00 150 55 45
8.191378e-02 -3.525786e-01 -2.321073e+00 150 55 45
-6.107608e-02 -3.528783e-01 -2.346034e+00 136 40 24
6.995040e-02 -3.432883e-01 -2.313116e+00 101 6 6
