ply
format ascii 1.0
element face 0
property list uchar int vertex_indices
element vertex 940
property float x
property float y
property float z
property uchar diffuse_red
property uchar diffuse_green
property uchar diffuse_blue
end_header
-1.187369e+00 2.466493e-01 -2.724323e+00 135 95 52
-2.213205e-01 3.508110e-01 -2.353058e+00 170 113 58
1.296300e+00 -1.419986e+00 -1.749613e+00 42 42 34
1.313725e+00 -1.438424e+00 -1.771292e+00 42 42 34
-5.188507e-01 -1.583674e+00 -2.102900e+00 40 58 2
1.385756e+00 -1.270788e+00 -1.769957e+00 78 79 68
2.903603e+00 -1.209785e+00 -1.786951e+00 97 89 60
6.301271e-01 -1.137951e+00 -2.029388e+00 123 139 92
9.625935e-01 -9.581881e-01 -2.010618e+00 12 54 5
2.362517e+00 -8.209280e-01 -1.767751e+00 63 58 47
1.560529e+00 -8.515890e-01 -1.957918e+00 61 61 51
1.188656e+00 -8.195303e-01 -1.983968e+00 33 79 21
-8.345668e-01 -9.860079e-01 -2.478279e+00 168 109 67
-4.745758e-01 -7.792099e-01 -2.384366e+00 136 75 24
-2.790197e-01 -5.949939e-01 -2.370909e+00 174 110 66
-1.752689e-01 -4.823362e-01 -2.358484e+00 117 27 1
-1.315713e-01 -3.706757e-01 -2.336010e+00 115 24 0
2.226752e-01 -2.641330e-01 -2.385728e+00 66 0 0
-9.586835e-01 -2.503296e-01 -2.550261e+00 97 46 5
-9.172821e-01 -1.800370e-01 -2.582754e+00 151 99 32
-3.495053e-01 -8.411161e-02 -2.359939e+00 91 26 2
-8.545550e-01 -8.012194e-02 -2.476187e+00 80 38 0
-3.074803e-01 -1.103646e-02 -2.353545e+00 165 118 63
3.593769e-01 3.481462e-02 -2.334941e+00 145 59 36
-3.539165e-01 2.682631e-01 -2.358797e+00 141 83 24
-5.834608e-01 3.152174e-01 -2.351393e+00 159 104 44
2.437305e-01 4.303584e-01 -2.342360e+00 76 32 2
1.230612e-01 5.114311e-01 -2.378872e+00 120 33 2
-8.133715e-01 1.281568e+00 -2.664660e+00 116 106 96
-3.510153e-01 1.391409e+00 -2.611107e+00 102 91 96
1.435328e+00 -1.997526e+00 -1.828597e+00 67 65 50
-1.098190e+00 -1.925997e+00 -2.096880e+00 186 183 142
-9.725786e-01 -1.883014e+00 -2.122633e+00 46 98 46
-7.361195e-01 -1.699679e+00 -2.002816e+00 156 176 134
1.457180e+00 -1.450962e+00 -1.688264e+00 61 59 46
-7.833108e-01 -1.696588e+00 -2.063013e+00 25 75 1
-9.182757e-01 -1.736736e+00 -2.115847e+00 41 103 33
-7.857666e-01 -1.630299e+00 -2.025301e+00 68 150 65
-6.932245e-01 -1.596416e+00 -2.018221e+00 53 96 47
-7.370180e-01 -1.669096e+00 -2.121022e+00 177 211 153
-5.657673e-01 -1.589482e+00 -2.114354e+00 171 213 147
1.331605e+00 -1.263871e+00 -1.776260e+00 22 22 14
1.296455e+00 -1.244983e+00 -1.784803e+00 78 76 63
5.205787e-02 -1.315593e+00 -2.036370e+00 26 78 3
6.772474e-01 -1.126982e+00 -2.017959e+00 100 102 61
3.643805e-01 -1.116600e+00 -2.016033e+00 49 140 45
5.841321e-01 -9.767058e-01 -2.044385e+00 44 78 14
1.065834e+00 -9.062676e-01 -2.021587e+00 152 178 134
-3.178055e-01 -9.733698e-01 -2.365490e+00 136 71 23
-4.713716e-01 -8.650035e-01 -2.405150e+00 142 80 36
-4.436355e-01 -8.351392e-01 -2.390431e+00 128 68 23
-5.369525e-01 -8.169423e-01 -2.406855e+00 144 75 23
-5.033635e-01 -8.215169e-01 -2.428007e+00 140 81 38
1.931435e+00 -6.217640e-01 -1.975635e+00 58 55 46
-1.124519e+00 -8.925140e-01 -2.691850e+00 127 80 38
-3.496077e-01 -7.595068e-01 -2.392638e+00 82 22 2
-2.155949e-01 -6.946967e-01 -2.368876e+00 160 72 42
-3.752465e-01 -6.911443e-01 -2.363036e+00 88 27 6
-3.540914e-01 -6.688132e-01 -2.381440e+00 78 12 1
-3.777851e-01 -6.395124e-01 -2.361904e+00 74 7 1
4.780016e-02 -5.936416e-01 -2.400513e+00 119 36 21
-8.055315e-01 -5.794392e-01 -2.477936e+00 120 47 4
-8.028483e-01 -5.770596e-01 -2.466951e+00 120 47 4
-2.539535e-01 -5.275310e-01 -2.369685e+00 157 68 40
3.012992e-01 -5.016712e-01 -2.343382e+00 64 2 1
2.421435e-01 -4.766741e-01 -2.348695e+00 70 4 2
-5.743577e-01 -4.707427e-01 -2.387686e+00 106 39 8
3.154871e-01 -4.008699e-01 -2.337610e+00 118 38 28
-5.602204e-01 -4.145745e-01 -2.417097e+00 141 82 18
-3.947345e-01 -4.009792e-01 -2.386113e+00 79 20 0
-2.271864e-01 -3.661032e-01 -2.331402e+00 132 37 12
4.371218e-03 -3.111491e-01 -2.332511e+00 66 6 7
1.666160e-01 -2.828274e-01 -2.385644e+00 123 41 24
3.799008e-01 -2.692846e-01 -2.365884e+00 113 34 22
-6.580528e-01 -2.861551e-01 -2.368363e+00 144 89 33
-7.974319e-01 -3.060645e-01 -2.472953e+00 110 47 6
-7.974319e-01 -3.060645e-01 -2.472953e+00 110 47 6
-7.897024e-01 -2.840239e-01 -2.462583e+00 111 49 0
1.541024e+00 -1.673460e-01 -2.352098e+00 84 80 66
-3.515229e-01 -1.573389e-01 -2.369353e+00 137 86 20
-4.334451e-01 -1.233339e-01 -2.365963e+00 139 90 22
5.529550e-02 -1.004966e-01 -2.314114e+00 152 57 32
-1.040644e-01 -8.084008e-02 -2.328603e+00 159 73 39
-3.732720e-01 -7.243146e-02 -2.384118e+00 146 90 24
-8.374419e-01 -7.047000e-02 -2.462053e+00 148 102 44
-8.190331e-01 -2.991071e-02 -2.468950e+00 107 56 2
-8.739179e-01 -3.431230e-02 -2.500793e+00 102 49 0
-8.618883e-01 1.835995e-02 -2.492800e+00 92 51 4
3.881286e-02 7.367078e-02 -2.328451e+00 70 17 0
-3.008565e-01 6.565052e-02 -2.390533e+00 110 47 4
-9.425721e-01 1.134100e-01 -2.504520e+00 110 60 0
4.896683e-01 2.098425e-01 -2.453707e+00 152 92 47
-6.765312e-01 2.057191e-01 -2.451972e+00 93 39 8
-6.834225e-01 2.188867e-01 -2.445158e+00 144 96 41
-9.081431e-01 2.167622e-01 -2.485925e+00 101 57 6
-2.250759e-01 2.533348e-01 -2.338566e+00 125 40 9
6.795354e-02 3.657758e-01 -2.319065e+00 58 12 2
-9.975142e-01 3.388084e-01 -2.548204e+00 118 66 4
1.245393e-01 3.788893e-01 -2.332308e+00 67 13 6
-1.023404e+00 3.559199e-01 -2.575695e+00 101 53 3
2.765197e-01 4.440672e-01 -2.342141e+00 61 20 0
-9.541249e-01 4.084607e-01 -2.551410e+00 157 81 49
-9.414071e-01 4.185649e-01 -2.542145e+00 126 43 13
-8.787123e-01 4.559502e-01 -2.520834e+00 123 42 7
-8.744000e-01 4.538190e-01 -2.504361e+00 123 42 7
4.532400e-01 5.782084e-01 -2.430132e+00 97 50 6
-7.554642e-01 1.152685e+00 -2.349824e+00 43 35 49
-5.516864e-01 1.365281e+00 -2.681363e+00 100 88 93
-5.084546e-01 1.359189e+00 -2.658612e+00 54 42 52
-1.273769e+00 1.417781e+00 -2.894822e+00 97 84 74
-1.169670e+00 1.625910e+00 -2.946191e+00 175 167 121
-8.206931e-02 1.594066e+00 -2.659045e+00 75 65 73
-9.434708e-01 -3.515106e-02 -2.572725e+00 126 72 0
-7.886506e-01 -1.605852e+00 -2.023239e+00 28 111 27
-3.411231e-01 -1.561720e+00 -2.060100e+00 20 100 19
3.337139e-01 -1.247483e+00 -2.032199e+00 28 92 23
-4.365298e-01 -1.639408e+00 -2.122807e+00 168 188 130
2.471593e+00 -7.116158e-01 -2.135664e+00 201 185 140
-5.971321e-01 -1.702838e+00 -2.054130e+00 54 98 33
9.325131e-02 -2.347838e-02 -2.378510e+00 136 23 3
-1.723957e-01 -3.870757e-01 -2.350105e+00 137 63 24
-3.781785e-01 -3.917584e-01 -2.395788e+00 97 40 3
-6.058183e-03 1.884811e-01 -2.337773e+00 96 42 11
-9.948827e-01 4.594318e-01 -2.547682e+00 145 49 11
-9.948827e-01 4.594318e-01 -2.547682e+00 145 49 11
-6.533312e-01 -1.591249e+00 -1.980434e+00 31 98 40
2.067448e-01 -1.348364e+00 -2.042911e+00 55 75 4
5.760849e-02 -5.573897e-01 -2.458113e+00 131 30 12
-3.481333e-01 -4.030282e-01 -2.374213e+00 149 92 11
2.647480e-01 -3.122103e-01 -2.376233e+00 66 6 7
-6.977514e-01 -3.121694e-01 -2.410461e+00 93 40 6
3.080589e-01 -1.521158e-01 -2.340623e+00 155 59 34
-1.858788e-02 2.453995e-01 -2.311080e+00 90 37 6
3.799805e-01 4.144971e-01 -2.422019e+00 103 52 3
-8.944494e-01 4.301132e-01 -2.514362e+00 147 48 16
-9.284732e-01 -1.750225e+00 -2.025307e+00 162 191 114
-7.000637e-01 -1.717131e+00 -2.024551e+00 152 169 108
-7.033513e-01 -1.695741e+00 -2.025237e+00 27 80 2
1.436207e+00 -1.525683e+00 -1.755827e+00 36 32 5
9.629723e-01 -1.342755e+00 -2.130985e+00 20 14 2
9.629723e-01 -1.342755e+00 -2.130985e+00 20 14 2
-5.881315e-01 -1.041422e+00 -2.430495e+00 173 115 68
1.174185e+00 -7.293803e-01 -1.979549e+00 150 112 60
1.566159e+00 -6.292328e-01 -2.035790e+00 108 103 81
1.544852e+00 -6.196517e-01 -2.011636e+00 108 103 81
1.371011e-01 -1.538380e-01 -2.293041e+00 159 69 37
-3.516671e-01 -8.637613e-02 -2.395055e+00 108 46 0
-9.714722e-01 1.489691e-02 -2.512847e+00 122 70 0
2.205823e-01 1.536969e-01 -2.382098e+00 82 25 2
-9.836372e-01 1.243179e-01 -2.526652e+00 118 69 1
2.089876e-01 2.887158e-01 -2.453940e+00 84 22 0
-1.698025e-01 3.550561e-01 -2.335383e+00 71 9 4
-1.706204e-01 3.556030e-01 -2.342390e+00 71 9 4
2.173785e-01 5.216338e-01 -2.358986e+00 171 117 55
-1.105780e+00 1.349963e+00 -2.717739e+00 113 96 92
-1.034402e+00 -1.730129e+00 -2.026340e+00 173 204 146
-7.371542e-01 -1.682003e+00 -2.133938e+00 182 224 160
-5.529315e-01 -1.644433e+00 -2.160967e+00 51 103 46
-4.353345e-01 -1.422305e+00 -2.029453e+00 187 208 170
2.486952e-02 -1.227330e+00 -2.045181e+00 65 101 54
6.208209e-01 -1.120502e+00 -2.044547e+00 24 80 4
2.650486e+00 -9.441201e-01 -1.930435e+00 44 32 10
-4.828068e-01 -8.516824e-01 -2.389037e+00 100 33 1
-8.053735e-01 -8.847581e-01 -2.534203e+00 152 91 24
-3.872953e-01 -7.004871e-01 -2.364375e+00 143 84 23
-2.591170e-01 -4.772979e-01 -2.365919e+00 167 77 42
-9.867330e-01 -4.646557e-01 -2.581375e+00 120 60 2
2.425986e-01 -1.291165e-01 -2.346911e+00 151 62 34
2.425986e-01 -1.291165e-01 -2.346911e+00 151 62 34
3.906757e-01 1.172625e-01 -2.414687e+00 155 86 43
-1.010086e+00 8.449563e-02 -2.537023e+00 112 71 2
-7.520976e-01 1.145311e-01 -2.428328e+00 154 107 36
-2.111385e-01 2.025661e-01 -2.339913e+00 180 124 64
-6.076144e-01 2.147053e-01 -2.397907e+00 155 105 47
-1.167019e+00 2.505604e-01 -2.662358e+00 144 109 59
-5.242952e-01 6.438358e-01 -2.456517e+00 189 80 38
-7.382535e-01 1.417183e+00 -3.283357e+00 43 43 55
-1.106280e+00 1.360343e+00 -2.470863e+00 67 51 30
1.278430e+00 -1.841629e+00 -1.773191e+00 77 73 44
-1.026871e+00 -1.821940e+00 -2.012572e+00 24 76 2
-4.580925e-01 -1.561958e+00 -2.015334e+00 55 102 56
-5.510642e-02 -1.330091e+00 -2.040796e+00 54 130 58
9.010901e-01 -1.132500e+00 -2.071992e+00 59 53 37
8.862955e-01 -9.858150e-01 -2.003182e+00 40 83 38
8.235123e-01 -9.177827e-01 -2.038142e+00 38 90 6
8.609184e-01 -8.283131e-01 -1.998706e+00 63 113 45
2.056057e-01 -8.624086e-01 -2.359261e+00 128 33 22
2.073786e-01 -8.679914e-01 -2.371142e+00 128 33 22
2.511034e-01 -8.447349e-01 -2.341333e+00 117 31 19
-4.981203e-01 -8.592862e-01 -2.389316e+00 154 91 42
-3.909026e-01 -8.622303e-01 -2.400879e+00 118 47 4
2.479301e-01 -8.172953e-01 -2.326395e+00 119 33 18
7.381585e-02 -6.136481e-01 -2.389319e+00 136 43 31
-2.078125e-01 -5.708510e-01 -2.369778e+00 173 78 45
2.449430e-01 -5.112872e-01 -2.429467e+00 124 42 28
2.441484e-01 -5.097715e-01 -2.421222e+00 124 42 28
3.848770e-03 -3.290852e-01 -2.340210e+00 77 3 2
2.739179e-01 -3.297468e-01 -2.399164e+00 76 1 0
3.278693e-01 -2.663878e-01 -2.411081e+00 128 39 25
-7.597154e-01 -1.498486e-01 -2.433245e+00 109 53 4
-7.272970e-02 -7.823302e-02 -2.347775e+00 172 75 40
-3.508884e-01 -6.170643e-02 -2.380687e+00 116 56 2
3.457089e-01 1.359621e-02 -2.389274e+00 153 64 38
-9.040668e-01 -1.301762e-02 -2.505895e+00 154 103 33
-7.447350e-01 1.230891e-01 -2.455074e+00 119 70 2
-4.639945e-01 2.783567e-01 -2.345728e+00 145 81 20
-1.659938e-01 3.422023e-01 -2.334537e+00 73 14 0
-8.729716e-01 4.113730e-01 -2.520197e+00 164 85 51
3.112905e-01 4.674250e-01 -2.299657e+00 147 94 31
4.538007e-01 5.063929e-01 -2.342999e+00 171 111 57
4.534607e-01 5.974334e-01 -2.426820e+00 121 68 7
-2.341724e-01 7.671666e-01 -2.290701e+00 53 52 64
-2.341724e-01 7.671666e-01 -2.290701e+00 53 52 64
-1.843788e-01 7.921789e-01 -2.342731e+00 13 10 22
-1.161407e-01 1.140319e+00 -2.389047e+00 50 50 62
1.172157e-02 1.704539e+00 -2.821649e+00 97 84 92
-5.108611e-01 1.679684e+00 -2.838600e+00 113 101 101
9.624525e-02 5.740499e-01 -2.358398e+00 143 27 2
2.079955e-01 -1.167433e+00 -2.010132e+00 33 135 33
-7.256349e-01 -1.541745e+00 -2.006313e+00 31 92 22
-1.471199e-01 -1.365272e+00 -1.984664e+00 182 191 133
-4.004052e-01 2.420691e-01 -2.361277e+00 155 88 3
6.127033e-01 9.492563e-01 -2.689948e+00 157 67 20
9.739261e-02 -6.046062e-01 -2.395229e+00 70 1 2
-9.386271e-01 1.810342e-01 -2.538969e+00 153 105 28
1.707998e-01 2.525846e-01 -2.401213e+00 139 76 5
-7.398263e-01 3.726649e-01 -2.237836e+00 172 103 67
1.056961e+00 -1.482515e+00 -1.961976e+00 21 18 2
4.945550e-01 -9.349297e-01 -2.555321e+00 34 0 0
-4.754853e-01 -4.347338e-01 -2.447403e+00 163 104 27
3.038049e-01 -3.699043e-01 -2.443414e+00 79 0 1
4.135612e-01 -2.571233e-01 -2.438948e+00 84 0 3
-1.271155e-02 -8.607419e-02 -2.368601e+00 167 74 38
-1.271155e-02 -8.607419e-02 -2.368601e+00 167 74 38
5.527814e-01 1.004490e-01 -2.531694e+00 173 108 66
-6.466725e-01 3.374362e-01 -2.423039e+00 141 38 7
-1.462770e-02 -5.129769e-01 -2.361530e+00 79 0 4
-6.271746e-01 -1.088088e-01 -2.361147e+00 88 44 0
-3.211047e-01 -7.312191e-02 -2.436598e+00 149 93 26
-1.122480e+00 4.517364e-01 -2.595669e+00 129 61 13
-1.137641e-02 4.879587e-01 -2.412250e+00 137 42 2
-9.960496e-02 8.195726e-01 -1.386713e+00 41 43 56
-3.549891e-01 -1.424956e+00 -1.965756e+00 48 122 53
9.327874e-01 -1.405572e+00 -2.099416e+00 44 37 15
1.546987e-01 -1.212375e+00 -1.960538e+00 56 103 45
6.008193e-01 -1.000705e+00 -1.975755e+00 125 195 112
8.954922e-01 -8.990897e-01 -2.025650e+00 57 118 34
1.165826e+00 -7.353519e-01 -1.987198e+00 144 120 56
4.684676e-01 -9.287712e-01 -2.533898e+00 84 28 21
-2.852697e-01 -7.153511e-01 -2.347549e+00 149 85 22
-1.073379e+00 -4.701418e-01 -2.649468e+00 123 43 0
-3.179689e-01 -1.193658e-01 -2.410834e+00 150 100 32
-1.137373e+00 1.808566e-01 -2.681285e+00 166 101 53
-4.471952e-02 3.495058e-01 -2.376408e+00 75 27 8
-9.271986e-01 1.432190e+00 -2.757020e+00 51 36 48
-1.548999e-01 1.497786e+00 -2.802390e+00 61 44 55
-9.500028e-01 -1.747381e+00 -1.974291e+00 21 107 26
2.293261e-01 -8.412413e-01 -2.512295e+00 140 35 15
-8.426786e-02 -5.975009e-01 -2.409898e+00 105 21 12
1.802971e-01 2.261420e-01 -2.391004e+00 76 18 0
-9.255273e-01 3.615630e-01 -2.499418e+00 184 139 72
7.669231e-01 -1.173978e+00 -2.523471e+00 62 55 41
1.241964e+00 -8.311399e-01 -1.983863e+00 88 77 60
-3.758930e-01 -7.104162e-01 -2.405694e+00 82 14 0
-4.398243e-01 -5.808421e-01 -2.342928e+00 101 37 5
-4.462026e-01 -5.429786e-01 -2.385584e+00 103 40 3
-3.549315e-01 -8.370155e-02 -9.927293e-01 93 24 15
1.053278e-01 8.593503e-02 -2.387860e+00 143 88 23
-3.059455e-02 -1.519517e+00 -2.025621e+00 198 174 134
3.191551e-01 -1.174435e+00 -2.235141e+00 184 161 118
-3.249310e-01 -1.402618e+00 -2.033207e+00 25 120 26
-1.888741e-01 -3.823913e-01 -2.368705e+00 194 113 76
-5.147559e-01 -1.472901e+00 -2.025174e+00 27 113 30
1.647857e+00 -1.069070e+00 -1.555909e+00 72 71 49
1.539415e+00 -1.124082e+00 -1.548093e+00 66 65 46
1.539415e+00 -1.124082e+00 -1.548093e+00 66 65 46
2.600738e-01 -1.211531e+00 -1.976681e+00 19 109 13
4.912003e-01 -9.704509e-01 -1.887704e+00 45 137 33
-9.330217e-01 -1.699695e+00 -1.993508e+00 29 117 4
-6.407982e-01 -1.709791e+00 -2.010865e+00 148 143 90
2.601073e+00 -1.443611e+00 -1.616852e+00 67 62 20
6.156916e-01 -1.062773e+00 -1.935133e+00 33 59 6
1.252514e+00 -2.158062e-01 -2.586215e+00 42 35 20
4.548939e-01 5.749153e-01 -2.573921e+00 116 67 12
-1.072026e+00 -1.760676e+00 -1.988587e+00 28 105 18
-8.026729e-01 -1.760303e+00 -1.996841e+00 128 145 79
-8.574138e-01 -1.718932e+00 -1.977932e+00 25 101 12
1.091356e+00 -1.183057e+00 -1.739204e+00 69 67 52
1.091356e+00 -1.183057e+00 -1.739204e+00 69 67 52
-4.126777e-01 -1.099109e+00 -2.486850e+00 173 107 61
1.157151e-02 -7.567977e-03 -2.376967e+00 173 121 72
-3.823493e-01 1.748744e-01 -2.379849e+00 166 110 28
3.929073e-01 3.035656e-01 -2.451562e+00 120 65 7
-1.600862e-01 1.348659e+00 -2.587299e+00 57 45 69
-9.650156e-01 -1.835136e+00 -2.004416e+00 114 141 79
-1.074808e+00 -1.738063e+00 -1.988341e+00 62 114 23
1.268754e+00 -1.315847e+00 -1.510657e+00 67 67 55
-1.309653e-01 -1.309645e+00 -1.980830e+00 114 201 103
-1.309653e-01 -1.309645e+00 -1.980830e+00 114 201 103
2.471063e-01 -1.169018e+00 -1.969848e+00 94 185 86
3.771103e-01 -1.042317e+00 -2.004465e+00 200 211 168
5.423203e-01 -9.710080e-01 -2.006560e+00 203 223 162
6.969762e-01 -9.079022e-01 -2.052388e+00 23 19 0
8.846498e-01 -8.331999e-01 -2.060140e+00 19 12 0
1.045708e+00 -7.473489e-01 -1.983572e+00 17 82 19
-4.541698e-01 -7.566278e-01 -2.434020e+00 150 78 18
-5.530294e-01 -6.329872e-01 -2.492184e+00 105 34 3
-8.920889e-02 -3.402651e-02 -2.426215e+00 177 116 66
-1.090746e+00 -1.740595e+00 -1.989980e+00 206 220 155
2.051885e-01 -1.108668e+00 -1.950172e+00 88 169 76
3.553019e-01 -1.052344e+00 -2.022678e+00 180 172 132
5.769014e-01 -9.684087e-01 -1.923486e+00 92 173 84
-5.290676e-01 -6.793774e-01 -2.471836e+00 166 104 41
-5.290676e-01 -6.793774e-01 -2.471836e+00 166 104 41
-5.485604e-01 -6.837631e-01 -2.483757e+00 99 30 3
-5.491773e-01 -6.828440e-01 -2.484689e+00 99 30 3
-5.959363e-01 -5.183456e-01 -2.489963e+00 165 98 26
-4.553883e-01 -4.123843e-01 -2.411097e+00 83 20 3
-4.072146e-01 -3.950509e-01 -2.416564e+00 164 107 35
3.677843e-02 -3.942276e-01 -2.382489e+00 72 0 1
2.035124e-02 -3.480833e-01 -2.434450e+00 74 0 0
-6.295389e-01 -3.145852e-01 -2.407136e+00 107 53 5
-3.667546e-01 -2.398858e-01 -2.388460e+00 174 128 54
-4.050483e-01 -1.810739e-01 -2.404265e+00 174 123 45
2.868787e-01 -1.816487e-01 -2.424757e+00 158 58 32
-9.399116e-01 -1.617334e-01 -2.568487e+00 168 112 37
-5.695807e-01 -1.339500e-01 -2.431001e+00 95 50 1
-6.333825e-01 -1.189049e-01 -2.411817e+00 91 45 0
-1.202251e-01 3.692746e-02 -2.407444e+00 100 43 3
-6.028119e-01 2.088523e-01 -2.392675e+00 181 131 55
-1.077258e+00 -1.763843e+00 -1.972765e+00 135 152 78
-9.343723e-01 -1.707265e+00 -1.994215e+00 44 113 5
-7.221559e-01 -1.572019e+00 -2.000453e+00 44 123 40
4.058209e-02 -1.208497e+00 -2.020736e+00 81 113 66
1.269524e+00 -9.397475e-01 -1.849715e+00 74 72 57
7.373645e-01 -1.155770e+00 -2.486170e+00 32 20 6
-9.592195e-01 -8.464378e-01 -2.616304e+00 160 106 36
-9.589873e-01 -8.478991e-01 -2.618118e+00 160 106 36
-9.567490e-01 -7.924694e-01 -2.608261e+00 167 107 38
-5.630070e-01 -6.888938e-01 -2.482305e+00 163 85 29
-7.467606e-02 -5.285729e-01 -2.352068e+00 140 49 33
-1.683207e-01 -5.141802e-01 -2.380902e+00 169 75 41
-5.781268e-01 -5.039534e-01 -2.412468e+00 106 37 0
-3.939962e-01 -4.076806e-01 -2.407776e+00 89 27 0
-5.349445e-01 -3.935170e-01 -2.378905e+00 111 56 2
-3.676467e-01 -3.961748e-01 -2.381260e+00 91 31 5
-5.638605e-01 -4.087408e-01 -2.444019e+00 100 38 1
5.649850e-02 -3.765737e-01 -2.366600e+00 76 3 0
7.600037e-02 -3.521274e-01 -2.358187e+00 102 7 1
6.164902e-02 -3.168577e-01 -2.420538e+00 86 3 3
-9.268644e-01 -2.518412e-01 -2.496393e+00 110 63 5
-1.129239e+00 -1.558060e-01 -2.695679e+00 141 81 36
-4.584930e-01 -1.174278e-02 -2.412018e+00 96 44 13
7.242349e-02 4.639700e-02 -2.349933e+00 138 79 25
-7.748622e-02 4.900413e-02 -2.393388e+00 153 94 28
-7.531406e-01 6.131766e-02 -2.426157e+00 164 107 32
-7.531406e-01 6.131766e-02 -2.426157e+00 164 107 32
-6.992537e-02 8.073816e-02 -2.413742e+00 87 29 2
-6.992537e-02 8.073816e-02 -2.413742e+00 87 29 2
-1.008760e+00 8.450969e-02 -2.523815e+00 119 75 6
-4.748827e-01 2.163006e-01 -2.365298e+00 98 41 5
6.291817e-02 2.739476e-01 -2.386481e+00 86 22 10
-3.890235e-01 2.800594e-01 -2.349908e+00 174 120 49
-1.766099e-01 3.458717e-01 -2.388344e+00 143 87 25
5.249489e-02 3.899396e-01 -2.352380e+00 64 15 2
-7.297084e-01 6.672548e-01 -2.419863e+00 174 73 32
-2.136304e-01 1.458134e+00 -2.704809e+00 61 48 58
-2.136304e-01 1.458134e+00 -2.704809e+00 61 48 58
7.830501e-01 -4.360719e-01 -2.819727e+00 207 189 151
-8.407615e-01 -1.558350e+00 -1.929775e+00 164 178 113
-4.275357e-01 -1.467976e+00 -1.927994e+00 185 203 149
-8.374893e-02 -1.228589e+00 -1.971881e+00 30 101 24
1.464535e+00 -6.980307e-01 -2.135595e+00 20 16 1
-3.297493e-02 -3.182752e-02 -2.459500e+00 168 116 66
1.394516e-01 5.032181e-01 -2.304002e+00 165 112 42
-4.867976e-01 -5.171851e-01 -2.453947e+00 101 44 1
-4.007338e-01 1.582037e-01 -2.358699e+00 114 52 16
-1.363323e-02 2.464523e-01 -2.352923e+00 99 39 6
-1.000577e+00 2.471770e-01 -2.594466e+00 157 114 36
3.345639e-01 3.374034e-01 -2.440499e+00 109 51 1
7.203959e-02 4.846487e-01 -2.369252e+00 164 110 41
1.129766e+00 -7.504053e-01 -2.028193e+00 18 95 4
-4.743185e-01 -7.379195e-01 -2.460455e+00 93 27 1
-5.496117e-01 -6.090608e-01 -2.438375e+00 109 38 3
-4.694351e-01 -4.951187e-01 -2.446687e+00 157 94 26
9.710446e-02 -3.553945e-01 -2.418259e+00 143 40 19
8.516164e-01 -4.168862e-01 -2.618167e+00 46 34 25
-3.457211e-01 -2.563270e-01 -2.426062e+00 86 29 10
-3.505556e-01 -1.327979e-01 -2.380720e+00 93 42 7
-3.505556e-01 -1.327979e-01 -2.380720e+00 93 42 7
-9.535052e-01 1.074019e-01 -2.520097e+00 126 74 1
-5.387872e-01 6.322494e-01 -2.313398e+00 193 83 34
-6.027162e-01 6.461034e-01 -2.340111e+00 220 122 73
-6.027162e-01 6.461034e-01 -2.340111e+00 220 122 73
3.172500e-02 1.359911e+00 -2.475201e+00 112 97 98
-4.917304e-01 -1.007659e+00 -2.480815e+00 105 41 2
-9.029241e-01 -9.829993e-01 -2.689143e+00 157 99 26
-4.324053e-01 -8.103348e-01 -2.456518e+00 79 14 0
-5.427466e-01 -5.232085e-01 -2.493451e+00 163 103 36
1.502636e-01 -6.037414e-01 -2.470494e+00 134 38 24
-6.878404e-02 -5.467188e-01 -2.398730e+00 149 59 36
-2.290967e-02 -4.026632e-01 -2.432876e+00 77 4 4
-7.050245e-01 -3.031825e-01 -2.416900e+00 102 49 6
-4.343631e-01 -2.029658e-01 -2.481636e+00 150 85 25
-9.062123e-01 2.243208e-01 -2.512405e+00 163 112 32
-2.027452e-01 7.617036e-01 -2.271358e+00 42 28 35
3.086679e+00 -1.381331e+00 -1.845863e+00 192 177 138
-9.060554e+00 3.870219e+00 -8.329322e+00 73 93 112
-1.136562e+01 3.772343e+00 -9.034710e+00 69 60 43
2.671380e+00 -9.546918e-01 -1.960358e+00 40 34 20
-8.953897e+00 3.355333e+00 -7.860150e+00 67 85 99
-8.953897e+00 3.355333e+00 -7.860150e+00 67 85 99
-1.042526e+01 4.367219e+00 -8.660436e+00 147 132 106
-1.565064e-01 3.777343e-01 -2.352011e+00 144 86 5
-9.495423e+00 4.058975e+00 -8.887491e+00 166 150 126
-1.013860e+01 4.056821e+00 -8.444722e+00 137 126 110
3.002097e+00 -1.614025e+00 -1.825336e+00 176 167 116
-5.155578e-01 1.408794e+00 -2.741548e+00 62 52 76
-8.695347e+00 3.640353e+00 -7.879765e+00 134 128 115
-1.094882e+01 4.133310e+00 -9.092998e+00 158 144 119
2.140883e+00 -1.072131e+00 -1.758587e+00 101 99 72
-9.291242e-01 3.349735e-01 -2.493690e+00 98 43 3
-2.477329e-01 1.403421e+00 -2.671820e+00 61 48 66
-5.498905e-01 1.391280e+00 -2.687217e+00 61 49 72
-5.498905e-01 1.391280e+00 -2.687217e+00 61 49 72
-1.057045e+01 3.926703e+00 -8.794070e+00 90 79 48
2.922276e+00 -1.235671e+00 -1.794080e+00 29 26 8
6.676722e-01 -9.339242e-01 -2.028061e+00 35 118 35
2.306812e+00 -7.421037e-01 -1.820713e+00 55 42 14
1.488638e-01 -9.230536e-01 -2.399935e+00 134 36 16
-1.061779e+00 4.036030e-01 -2.617985e+00 176 109 47
-1.321882e+00 1.440779e+00 -3.000899e+00 34 17 5
4.829291e+00 2.525903e+00 -3.350778e+00 118 107 87
1.245427e+00 -1.268318e+00 -1.864570e+00 77 75 62
5.057768e-02 -6.938668e-02 -2.435432e+00 179 78 46
2.864043e+00 -1.139546e+00 -1.786874e+00 117 105 66
6.691976e-01 -1.150335e+00 -2.081996e+00 22 68 7
8.296390e-01 -1.202462e+00 -2.174407e+00 19 22 3
9.600598e-01 -1.003149e+00 -2.031321e+00 34 53 30
2.337117e+00 -8.049347e-01 -1.747985e+00 72 67 49
1.687859e+00 -7.910319e-01 -1.975754e+00 61 59 46
1.107985e+00 -7.542565e-01 -1.997432e+00 190 217 143
1.020993e+00 -7.570022e-01 -2.014488e+00 190 211 141
2.402766e+00 -7.173435e-01 -2.078555e+00 90 77 45
-9.672098e-01 -8.213719e-01 -2.536059e+00 178 111 57
6.940796e-01 -4.628974e-01 -2.337522e+00 51 44 36
-1.933561e-01 -3.410727e-01 -2.423936e+00 179 82 46
-1.021649e+00 -2.280627e-01 -2.580892e+00 192 127 73
-9.127795e-01 4.617246e-03 -2.578053e+00 158 110 34
-4.338276e-01 8.688171e-02 -2.396390e+00 123 68 0
-1.509197e-01 1.355494e+00 -2.623623e+00 50 37 53
-1.268345e+00 1.566929e+00 -2.969944e+00 65 48 27
9.319544e-01 -1.087697e+00 -1.795361e+00 27 25 13
3.315123e-01 -1.244441e+00 -2.297518e+00 199 175 139
2.278484e+00 -5.668069e-01 -3.514179e+00 31 29 16
1.180868e+00 -7.224632e-01 -1.976761e+00 167 116 68
1.153901e+00 -8.711993e-01 -1.941180e+00 5 7 2
7.323971e-02 -1.188656e+00 -1.766466e+00 173 156 113
6.060394e-01 -8.692944e-01 -1.981705e+00 40 39 19
2.528111e+00 -1.365512e+00 -1.557370e+00 178 162 126
4.152040e-02 -9.865665e-01 -1.700015e+00 18 90 15
2.084667e-01 -9.676545e-01 -1.743475e+00 20 93 17
2.937795e-01 -9.989106e-01 -1.894969e+00 16 91 12
4.521990e-01 -9.403536e-01 -1.911393e+00 13 87 11
1.180320e+00 -6.017220e-01 -1.996639e+00 23 23 13
2.683095e+00 -9.156739e-01 -2.288208e+00 17 18 9
3.004365e-02 4.288099e-01 -2.404354e+00 145 81 11
1.072527e+00 -9.440310e-01 -1.981962e+00 0 5 0
4.527814e-01 1.305306e-01 -2.693097e+00 112 58 12
6.559657e-01 1.272572e-01 -2.888104e+00 157 103 56
1.063020e-01 -1.093005e+00 -1.737317e+00 173 157 113
1.263911e-02 -9.443119e-01 -1.759051e+00 37 109 25
7.230525e-01 -1.036432e+00 -1.917431e+00 36 38 20
-1.200611e+00 9.681296e-01 -2.614446e+00 211 197 157
-4.874856e-01 -1.137726e+00 -1.595883e+00 24 91 19
1.646839e+00 -9.995330e-01 -1.523351e+00 73 72 54
1.646839e+00 -9.995330e-01 -1.523351e+00 73 72 54
6.363020e-01 -9.227052e-01 -1.880297e+00 201 218 162
1.061286e+00 -8.664348e-01 -1.969965e+00 123 142 91
2.730245e+00 -1.721690e+00 -1.642628e+00 14 4 0
2.708479e+00 -1.093344e+00 -1.731881e+00 23 20 3
1.025060e+00 -8.196257e-01 -1.971809e+00 20 93 16
1.093390e+00 -7.897590e-01 -2.061632e+00 197 207 159
1.159466e+00 -7.820795e-01 -2.081842e+00 32 114 29
1.570689e+00 -7.497832e-01 -2.181086e+00 20 9 2
7.288137e-01 -7.933504e-01 -3.025344e+00 101 8 0
8.635810e-01 -7.874190e-01 -3.073713e+00 17 7 1
-6.294238e-02 3.495592e-01 -2.366670e+00 78 27 1
-6.294238e-02 3.495592e-01 -2.366670e+00 78 27 1
-2.712390e-02 8.329884e-02 -2.437142e+00 103 40 11
8.785317e-01 -7.872874e-01 -3.310405e+00 114 29 2
2.112134e+00 -7.790968e-01 -2.365920e+00 71 68 59
2.112134e+00 -7.790968e-01 -2.365920e+00 71 68 59
4.995836e-01 1.340414e-01 -2.754222e+00 163 112 57
4.642258e-01 1.534854e-01 -2.718493e+00 87 28 0
5.712578e-01 1.569608e-01 -2.794017e+00 129 78 21
1.041433e+00 -8.034253e-01 -2.073736e+00 13 29 2
2.125088e+00 -7.123709e-01 -2.371551e+00 101 99 86
-2.853302e-01 3.759653e-02 -2.404986e+00 168 82 47
5.210848e-01 7.218411e-01 -2.672494e+00 189 140 95
-1.853911e-01 -1.366018e+00 -2.082774e+00 20 84 22
-9.326741e+00 2.854311e+00 -7.063383e+00 49 58 58
-7.074770e-01 -1.635486e+00 -2.138618e+00 20 78 25
2.861875e+00 -1.112130e+00 -1.831509e+00 178 164 126
1.406714e-01 2.792376e-01 -2.420217e+00 70 26 1
-1.069494e+01 3.845994e+00 -8.739107e+00 117 106 81
7.239949e-01 -1.148682e+00 -2.048769e+00 101 97 57
-5.277629e-01 -8.096997e-01 -2.417887e+00 89 24 0
-8.554139e-01 2.890779e-02 -2.495615e+00 95 52 18
2.892462e+00 -1.171185e+00 -1.797514e+00 58 53 22
-1.852027e-01 3.387357e-01 -2.365656e+00 122 68 19
-2.515712e-01 -1.242449e+00 -1.890910e+00 181 175 138
1.270091e+00 -9.597194e-01 -1.859108e+00 78 76 63
9.250100e-01 -8.261105e-01 -1.928119e+00 46 82 25
9.746934e-01 -8.287810e-01 -2.031253e+00 18 52 1
1.135779e+00 -7.755492e-01 -1.987219e+00 170 192 138
8.194558e-02 -3.649291e-01 -2.437236e+00 87 3 5
-5.882862e-01 -3.245327e-01 -2.443156e+00 77 19 4
1.655409e+00 -1.075356e-01 -2.806066e+00 81 75 58
-5.966430e-01 6.318942e-01 -2.334974e+00 227 144 102
5.245511e-01 1.449868e+00 -2.653797e+00 126 115 96
-1.087663e+01 3.805864e+00 -8.921796e+00 52 46 36
-7.789749e-01 -1.812187e+00 -2.097945e+00 46 83 33
3.022424e+00 -1.550747e+00 -1.831982e+00 160 147 105
-1.047770e+01 3.749658e+00 -8.434401e+00 129 117 91
-9.985662e+00 4.028186e+00 -8.663041e+00 119 112 87
-9.975106e+00 3.666029e+00 -8.394021e+00 133 122 98
-1.061651e+01 3.902769e+00 -8.920488e+00 95 83 57
-1.014543e+01 3.773680e+00 -8.463018e+00 130 119 92
3.024308e+00 -1.975065e+00 -1.865915e+00 26 21 0
5.738970e-01 -9.234107e-01 -1.985980e+00 84 85 51
-6.670153e-01 3.239243e-01 -2.538281e+00 151 100 38
-7.493690e-01 1.247196e-01 -2.425697e+00 144 96 41
-8.590877e+00 3.698461e+00 -7.726133e+00 44 63 69
1.189985e+00 -1.284113e+00 -1.864482e+00 78 78 66
-2.016166e-01 8.014167e-01 -2.438929e+00 96 89 93
-7.497551e-01 -9.226503e-01 -2.463727e+00 141 80 33
-9.768447e-01 -8.194008e-01 -2.427889e+00 119 41 9
-9.785004e-01 -8.226330e-01 -2.435230e+00 119 41 9
1.624871e+00 -6.042236e-01 -2.091595e+00 53 50 41
-7.386585e-01 1.294536e-01 -2.440619e+00 102 49 0
-2.068218e-01 -5.809230e-01 -2.421209e+00 164 74 47
-3.783068e-01 -1.113598e-02 -2.403495e+00 152 105 45
-7.707378e-01 2.109251e-01 -2.441553e+00 136 85 29
2.097941e+00 -1.088759e+00 -1.777606e+00 65 58 49
-8.043181e-02 -5.771033e-01 -2.422451e+00 81 2 2
-1.089636e-01 -5.169281e-01 -2.425369e+00 169 83 56
2.769549e-02 2.150759e-01 -2.403637e+00 132 72 24
-8.235604e-01 -1.722196e+00 -2.190642e+00 30 94 34
2.115919e+00 -9.820496e-01 -1.687104e+00 78 76 55
2.681897e-01 -5.645183e-01 -2.512688e+00 130 34 12
-1.855420e-01 1.412490e+00 -2.648457e+00 111 97 98
-1.855420e-01 1.412490e+00 -2.648457e+00 111 97 98
-1.211409e+00 4.624711e-01 -2.745285e+00 148 115 64
-1.247747e-01 1.793728e+00 -3.035511e+00 26 22 39
2.281810e+00 -7.522433e-01 -1.763933e+00 48 42 27
-2.625106e-01 -2.061359e-01 -2.405861e+00 183 97 60
-4.464327e-01 1.618147e+00 -2.743530e+00 82 72 72
9.348960e-02 5.460174e-02 -2.444233e+00 85 38 10
-4.763343e-01 -4.318274e-01 -2.443248e+00 163 104 27
-7.911250e-01 -1.584821e-01 -2.495938e+00 90 37 0
-7.911250e-01 -1.584821e-01 -2.495938e+00 90 37 0
3.751064e-01 -4.898039e-01 -2.573759e+00 133 41 29
3.751064e-01 -4.898039e-01 -2.573759e+00 133 41 29
1.892320e-01 -1.056371e+00 -1.875526e+00 116 189 100
4.054044e-02 2.738362e-01 -2.404480e+00 154 94 25
1.617518e-01 3.757725e-01 -2.427854e+00 102 36 0
3.693052e-02 -1.477856e+00 -2.057138e+00 199 178 135
-8.574943e-01 -1.697027e+00 -2.114796e+00 32 110 28
-1.801604e-01 -1.373699e+00 -2.086566e+00 25 109 24
6.649244e-01 -1.079454e+00 -1.931097e+00 118 104 65
1.606649e+00 -1.229077e+00 -1.637741e+00 63 62 44
1.967415e+00 -9.796909e-01 -1.629692e+00 90 84 60
1.967415e+00 -9.796909e-01 -1.629692e+00 90 84 60
4.819782e-01 -1.190328e+00 -2.005905e+00 56 78 9
4.732279e-01 -1.009821e+00 -1.874786e+00 177 196 140
7.995175e-01 -8.708513e-01 -2.025683e+00 33 117 26
2.241980e+00 -7.297206e-01 -1.748050e+00 55 48 22
1.147065e+00 -7.167957e-01 -2.028471e+00 53 124 39
1.155948e+00 -1.069771e+00 -1.564727e+00 80 79 61
1.513550e+00 -8.219865e-01 -1.909371e+00 64 62 48
1.182179e+00 -7.339341e-01 -1.992715e+00 166 125 66
1.536962e+00 -6.609371e-01 -2.032109e+00 36 29 19
3.250874e-02 -6.230328e-01 -2.390814e+00 89 2 4
-5.551544e-01 -5.653850e-01 -2.461982e+00 111 40 6
-5.551544e-01 -5.653850e-01 -2.461982e+00 111 40 6
-4.908713e-01 -5.127231e-01 -2.443227e+00 119 58 25
3.310190e-01 -4.508846e-01 -2.466790e+00 86 1 3
3.310190e-01 -4.508846e-01 -2.466790e+00 86 1 3
4.529337e-01 -3.931073e-01 -2.508117e+00 86 0 2
-4.011236e-01 1.610651e-01 -2.382074e+00 93 32 3
1.126903e+00 -1.071387e+00 -1.585300e+00 76 75 58
2.097767e+00 -8.481715e-01 -1.587108e+00 68 65 50
5.276513e-01 -9.889766e-01 -2.034732e+00 142 160 97
8.557374e-01 -9.808560e-01 -2.038034e+00 31 84 18
7.538678e-01 -8.990819e-01 -1.992989e+00 44 95 4
7.718275e-02 -1.019985e+00 -2.487877e+00 87 3 1
1.156501e+00 -7.628783e-01 -1.898912e+00 94 69 38
1.561417e+00 -7.761628e-01 -1.896950e+00 75 73 60
1.086622e+00 -7.496157e-01 -1.990192e+00 31 88 10
1.711041e+00 -7.038527e-01 -1.909055e+00 66 64 51
-8.450282e-01 -8.971584e-01 -2.543402e+00 116 59 3
-8.450282e-01 -8.971584e-01 -2.543402e+00 116 59 3
1.844641e+00 -6.613020e-01 -1.947713e+00 67 64 53
1.844641e+00 -6.613020e-01 -1.947713e+00 67 64 53
1.865689e+00 -6.170332e-01 -1.927744e+00 68 66 52
-3.199736e-01 -6.643957e-01 -2.416295e+00 114 41 0
1.585912e+00 -5.829865e-01 -2.048424e+00 55 53 40
-5.325210e-01 -5.492750e-01 -2.416282e+00 164 102 39
-1.200409e-01 -5.091959e-01 -2.411908e+00 134 35 4
2.815728e-01 -4.685784e-01 -2.453642e+00 91 3 2
-1.110432e+00 1.527851e-01 -2.615776e+00 129 64 19
1.285286e+00 -9.755311e-01 -1.892038e+00 73 72 54
1.296192e+00 -9.610826e-01 -1.881818e+00 74 72 57
1.343817e+00 -8.967999e-01 -1.873622e+00 54 52 40
9.357663e-01 -8.377263e-01 -2.015266e+00 41 93 15
1.149156e+00 -7.723887e-01 -1.991380e+00 79 95 31
2.728735e-01 -9.513095e-01 -2.472367e+00 135 38 25
2.966808e-01 -9.043157e-01 -2.481849e+00 94 1 1
9.413273e-01 -7.634113e-01 -2.159752e+00 44 40 29
2.248110e-01 -8.508107e-01 -2.484493e+00 145 44 29
-9.274283e-01 -8.486343e-01 -2.625798e+00 110 51 0
-7.921233e-01 -7.914518e-01 -2.600821e+00 175 114 53
-7.829174e-01 -7.769993e-01 -2.572461e+00 175 114 53
-5.248890e-01 -7.313102e-01 -2.465032e+00 165 103 47
-5.133902e-01 -6.305531e-01 -2.459809e+00 94 29 5
1.877012e+00 -5.364324e-01 -2.123116e+00 35 33 20
1.882146e+00 -2.494146e-01 -3.127971e+00 41 40 22
1.007385e+00 -1.072732e+00 -1.623496e+00 76 77 59
1.770812e-01 -1.977536e-01 -2.507009e+00 158 64 31
-6.895383e-01 6.755114e-01 -2.295605e+00 154 48 17
2.747699e+00 -8.621697e-01 -2.401211e+00 86 77 38
2.887756e+00 -9.716339e-01 -2.335157e+00 204 188 152
-3.475522e-01 -1.468260e-01 -2.434411e+00 111 56 16
2.802867e+00 -1.178936e+00 -1.714993e+00 101 93 46
-1.765383e-02 -3.690322e-01 -2.470455e+00 89 11 4
-3.571461e-01 8.915329e-02 -2.384661e+00 136 81 14
-3.098878e-01 7.738712e-02 -2.426091e+00 183 128 73
-1.115944e+01 4.487045e+00 -9.987113e+00 165 152 117
-1.162335e+01 4.801178e+00 -1.028284e+01 55 69 75
-2.550387e-01 -2.521645e-01 -2.379220e+00 189 93 55
-9.226864e-02 -5.309353e-01 -2.473442e+00 158 81 42
-1.026018e+00 -4.220241e-02 -2.557398e+00 172 119 60
-4.578658e-01 -4.130733e-01 -2.435157e+00 88 26 2
-9.922989e-01 -4.834557e-01 -2.610966e+00 122 63 1
-3.436699e-01 -2.105987e-01 -2.447518e+00 97 34 1
-3.850756e-01 -1.874175e-01 -2.413488e+00 95 34 2
-3.502329e-01 -1.412906e-01 -2.409587e+00 98 44 1
-3.502329e-01 -1.412906e-01 -2.409587e+00 98 44 1
-6.948411e-01 1.184168e-02 -2.399380e+00 104 57 3
-9.676266e-01 6.626807e-02 -2.513835e+00 109 70 4
-7.565830e-01 2.359996e-01 -2.386281e+00 113 64 6
-3.814460e-01 -2.415455e-01 -2.424573e+00 105 50 4
-8.962588e-01 -3.982641e-02 -2.488645e+00 156 108 40
-7.624238e-01 -1.137340e-02 -2.437209e+00 153 107 31
-4.599290e-01 2.168004e-01 -2.340142e+00 161 113 42
-3.940822e-01 -1.359541e-02 -2.385577e+00 95 43 7
-8.175569e-01 4.833214e-02 -2.433964e+00 158 112 44
-6.888362e-01 2.475682e-01 -2.348311e+00 122 64 5
-8.925079e-01 2.443890e-01 -2.421350e+00 155 107 35
2.078375e+00 -3.876958e-01 -2.623992e+00 30 27 18
8.491772e-01 -4.300127e-02 -2.577974e+00 191 173 133
-9.058562e-01 4.064783e-01 -2.490678e+00 154 80 47
-7.613053e-01 -8.932193e-01 -2.479446e+00 90 29 0
-8.403816e-01 2.182642e-02 -2.485165e+00 98 56 1
-8.414572e-01 1.851843e-02 -2.499479e+00 95 52 0
1.693122e+00 -1.368594e-01 -2.418705e+00 212 198 152
-1.013239e+00 -7.530061e-01 -2.700600e+00 173 112 52
-9.320135e-01 4.875489e-02 -2.509771e+00 96 57 3
-5.568834e-01 1.770201e+00 -3.035406e+00 120 106 105
-3.125784e-01 -2.885636e-02 -2.367195e+00 193 142 89
1.454045e-01 -1.284746e+00 -1.982701e+00 28 109 24
-5.986531e-01 -3.345671e-01 -2.435970e+00 126 72 30
-5.986531e-01 -3.345671e-01 -2.435970e+00 126 72 30
1.066264e+00 -1.598668e+00 -1.875236e+00 114 104 72
-6.476528e-01 -1.550706e+00 -1.927985e+00 30 109 38
-4.495771e-01 -1.469763e+00 -1.931205e+00 99 122 68
-3.180488e-01 -1.392469e+00 -1.917688e+00 177 207 151
-1.843617e-01 1.131329e+00 -2.303313e+00 20 17 34
-1.042021e+00 6.957825e-02 -2.590245e+00 187 130 75
-1.042021e+00 6.957825e-02 -2.590245e+00 187 130 75
-6.972525e-01 6.531924e-01 -2.323901e+00 176 69 26
7.008532e-02 -1.216412e+00 -1.944081e+00 19 119 21
-1.904610e-01 -1.379263e+00 -1.936573e+00 18 102 17
2.968917e-01 -1.174641e+00 -1.941921e+00 22 103 19
-3.065552e-01 -1.483908e+00 -1.912608e+00 182 165 119
9.239066e-01 -7.979419e-01 -1.935212e+00 162 183 116
1.171086e-01 -1.127981e+00 -1.959871e+00 37 111 27
-4.251073e-01 -1.489028e+00 -1.908547e+00 62 98 33
-2.199926e-01 -1.278711e+00 -1.923439e+00 191 212 148
1.125699e+00 -7.271754e-01 -1.983319e+00 21 95 3
-1.173210e-01 4.439455e-01 -2.363138e+00 162 108 26
1.181556e+00 -1.258657e+00 -1.497239e+00 27 24 5
1.044787e+00 -7.348012e-01 -2.032454e+00 31 26 6
-3.673761e-01 -2.107319e-01 -2.388075e+00 159 102 24
1.872238e-01 1.403877e+00 -2.615897e+00 61 48 57
1.218663e+00 -1.301612e+00 -1.528926e+00 34 30 4
9.823442e-01 -1.460764e+00 -1.890110e+00 43 37 15
-4.265595e-01 -9.104888e-01 -2.456307e+00 94 30 3
-5.224188e-01 -8.223050e-01 -2.434410e+00 108 44 1
-6.523885e-01 -7.536346e-01 -2.440706e+00 108 38 0
-4.378360e-01 -7.485385e-01 -2.452083e+00 89 24 1
-5.409369e-01 -7.067890e-01 -2.420279e+00 109 44 0
-4.899395e-01 -4.386619e-01 -2.395376e+00 100 44 0
-2.354920e-01 7.860190e-01 -2.411188e+00 73 70 77
-7.145238e-01 7.948889e-01 -2.433440e+00 65 61 71
1.902917e-01 -1.068220e+00 -1.905958e+00 78 161 64
7.345291e-01 -9.041378e-01 -2.061215e+00 46 42 8
1.164071e+00 -6.976317e-01 -1.991519e+00 196 182 119
-4.277573e-01 -1.547463e-02 -2.401649e+00 101 54 11
-1.308312e-01 3.544435e-01 -2.333148e+00 55 4 0
-3.060922e-01 1.431725e+00 -2.712390e+00 55 42 58
-8.590612e-01 -1.546198e+00 -1.929217e+00 56 106 28
-6.179423e-01 -1.491324e+00 -1.876082e+00 112 157 103
-6.179423e-01 -1.491324e+00 -1.876082e+00 112 157 103
2.542568e+00 -1.019139e+00 -1.615605e+00 43 39 15
8.639787e-01 -1.208616e+00 -2.034336e+00 28 22 8
3.569384e-01 -1.097431e+00 -1.972864e+00 52 153 49
2.128133e+00 -2.992048e-01 -2.698972e+00 53 40 23
-3.916087e-01 -6.472377e-02 -2.379213e+00 113 51 4
2.567407e+00 -1.229874e+00 -1.721413e+00 54 48 38
1.902807e-01 -1.019624e+00 -1.819169e+00 12 110 17
2.049040e-01 -1.124319e+00 -1.770278e+00 182 160 123
-7.232054e-01 1.456414e+00 -2.191547e+00 206 190 137
-3.131978e-01 -1.077210e+00 -1.606498e+00 76 91 28
-1.046208e+00 -1.925285e-01 -2.685341e+00 183 127 63
3.005993e+00 -1.250990e+00 -1.843898e+00 199 189 142
-2.060144e-01 -4.145012e-01 -2.461230e+00 184 97 62
5.573275e-02 7.582633e-01 -2.555997e+00 25 24 37
2.319699e+00 -7.646889e-01 -1.864712e+00 43 44 30
3.887402e-01 2.565169e-01 -2.629873e+00 128 67 27
5.856715e-01 8.322909e-01 -2.841981e+00 153 32 5
3.441991e-02 -4.851456e-02 -2.497512e+00 150 98 46
3.374593e-01 4.456787e-02 -2.588767e+00 146 84 31
-3.580413e-01 5.432151e-02 -2.512962e+00 154 98 23
-9.195865e-01 6.100384e-02 -2.817185e+00 103 53 0
-9.195865e-01 6.100384e-02 -2.817185e+00 103 53 0
4.567240e-01 1.134570e-01 -2.671584e+00 87 27 0
3.009260e-01 4.097235e-01 -2.537088e+00 88 29 2
2.805947e-01 1.005626e-01 -2.567574e+00 139 81 21
2.394362e-01 1.220957e-01 -2.526341e+00 94 35 1
-9.779062e-01 7.091042e-02 -2.795809e+00 153 105 35
5.270242e-03 1.789350e-01 -2.460628e+00 134 79 12
4.069614e-01 2.613220e-01 -2.623835e+00 91 32 0
-1.053438e+00 2.607338e-01 -2.844839e+00 110 61 3
2.697901e-01 3.902043e-01 -2.542024e+00 69 13 1
-2.368107e-03 1.021839e-01 -2.409628e+00 110 43 2
1.988795e-01 4.930282e-02 -2.528995e+00 87 28 1
1.079824e-01 7.345660e-02 -2.499234e+00 85 25 0
2.002257e-01 1.056216e-01 -2.523348e+00 87 33 0
-1.039787e+00 1.348534e-01 -2.876300e+00 152 110 38
-1.074642e+00 4.090189e-01 -2.879752e+00 179 100 61
-6.934238e-02 -4.791733e-01 -2.577372e+00 167 78 44
-6.934238e-02 -4.791733e-01 -2.577372e+00 167 78 44
1.170830e-01 -3.689305e-01 -2.633274e+00 151 56 28
3.052882e-03 4.826277e-02 -2.507101e+00 101 36 2
-8.255933e-02 2.203462e-01 -2.384292e+00 71 19 0
-5.657254e-01 1.090585e-01 -2.402080e+00 149 94 30
-1.707807e-01 1.744054e-01 -2.381583e+00 72 16 2
-1.877756e-01 2.297836e-01 -2.371746e+00 144 90 17
1.135752e+00 -7.363066e-01 -1.990966e+00 35 91 2
-5.005435e-01 -1.040207e+00 -2.522528e+00 111 48 12
-3.825907e-01 1.484275e-01 -2.386527e+00 177 120 49
-1.182422e-01 2.243576e-01 -2.384766e+00 110 55 9
-5.582552e-01 3.144570e-01 -2.374207e+00 169 110 35
-4.519802e-01 -6.840342e-02 -2.423121e+00 118 62 2
-6.165247e-01 2.048103e-01 -2.404605e+00 98 42 7
-6.066853e-01 2.141206e-01 -2.398520e+00 175 125 61
-5.252717e-01 -1.417222e-01 -2.449544e+00 99 50 3
-6.912647e-01 -1.082643e-02 -2.465214e+00 103 56 4
-4.372771e-01 1.421062e-01 -2.387941e+00 98 36 3
-5.194861e-01 2.044566e-01 -2.383467e+00 95 44 7
-6.913215e-01 2.112593e-01 -2.424521e+00 107 51 2
-5.231558e-01 2.154202e-01 -2.387399e+00 99 43 10
-5.231558e-01 2.154202e-01 -2.387399e+00 99 43 10
-6.556137e-01 2.197706e-01 -2.407685e+00 161 112 49
-6.556137e-01 2.197706e-01 -2.407685e+00 161 112 49
2.800570e+00 -1.029861e+00 -2.006585e+00 198 183 142
1.098428e+00 -7.512344e-01 -1.974224e+00 212 227 158
9.959407e-02 1.953607e-01 -2.447333e+00 94 33 1
-4.573396e-01 -4.365266e-01 -2.490590e+00 104 47 11
1.318100e-03 2.846773e-02 -2.445393e+00 155 92 15
-5.947098e-02 3.130757e-02 -2.432469e+00 74 17 0
-8.167350e-01 9.080011e-02 -2.502957e+00 164 113 34
-2.138562e-01 6.565005e-01 -2.361437e+00 251 222 188
-9.564861e-01 -1.644751e-01 -2.654836e+00 109 60 0
-5.265452e-02 2.960306e-01 -2.374281e+00 85 25 0
-9.562193e-01 3.847024e-01 -2.533611e+00 143 50 13
-8.716738e-01 4.448721e-01 -2.485533e+00 172 87 48
-1.510943e-01 3.221209e-01 -2.411759e+00 83 26 0
-2.925746e-01 -1.126830e+00 -1.732501e+00 21 119 23
6.314959e-01 -8.890707e-01 -1.924862e+00 14 105 10
1.002795e+00 -7.822474e-01 -1.961816e+00 22 122 24
5.316336e-01 -8.839675e-01 -1.908523e+00 34 108 19
7.005663e-01 -8.461114e-01 -1.925903e+00 17 94 9
8.636406e-01 -8.055873e-01 -1.985247e+00 164 174 117
1.073317e+00 -7.538949e-01 -1.991356e+00 12 96 13
1.054633e+00 -7.605132e-01 -2.020194e+00 167 179 124
8.586991e-01 -8.268612e-01 -1.927827e+00 184 192 135
1.049110e+00 -7.335212e-01 -2.026867e+00 29 36 4
2.642246e+00 -1.062292e+00 -1.677590e+00 35 27 14
-2.509099e-01 -7.094255e-01 -2.044921e+00 147 33 6
4.306238e-01 -1.180018e+00 -1.873763e+00 171 153 117
9.795971e-01 -8.279337e-01 -1.965673e+00 92 107 50
-6.670040e-01 -1.037791e+00 -1.492088e+00 15 92 17
-9.043065e-01 -1.023080e+00 -1.475606e+00 24 95 19
-3.374609e-02 2.266651e-01 -2.333701e+00 134 79 12
2.710214e+00 -9.900023e-01 -1.827799e+00 181 165 129
-6.347727e-01 -1.029431e-01 -2.418631e+00 97 49 8
1.634333e+00 -1.005334e+00 -1.518429e+00 74 72 51
2.078497e+00 -8.683807e-01 -1.603511e+00 66 63 46
2.293796e+00 -7.249996e-01 -1.749768e+00 196 180 146
-4.125748e-01 -9.604516e-01 -1.520758e+00 13 93 15
-7.178673e-01 7.312207e-01 -2.240144e+00 104 7 0
-1.021566e+00 -1.627101e+00 -1.828935e+00 27 94 25
1.758553e+00 -1.032110e+00 -1.568761e+00 72 69 50
5.658415e-01 -8.361979e-01 -1.865878e+00 25 103 17
-5.234370e-01 -1.451215e+00 -1.863347e+00 174 195 130
1.764704e+00 -8.398491e-01 -2.311821e+00 20 11 3
6.595627e-01 -8.183222e-01 -1.919920e+00 223 233 182
7.980068e-01 -1.149658e+00 -2.942755e+00 18 2 0
-8.621846e-02 -3.195316e-01 -2.145380e+00 86 0 4
-8.461657e-01 -1.955366e-01 -2.355427e+00 101 45 0
2.344761e-01 -8.331308e-01 -1.703862e+00 49 139 47
5.370875e-01 -9.050073e-01 -1.856607e+00 89 164 81
5.197900e-01 -8.869312e-01 -1.846833e+00 46 121 34
5.230692e-01 -7.933353e-01 -1.823258e+00 22 91 7
1.060051e+00 -6.407713e-01 -1.965762e+00 23 33 5
5.674318e-01 -3.514509e-01 -2.793841e+00 125 24 6
-1.886286e-01 -1.236037e+00 -1.751058e+00 185 170 127
-8.714170e-02 -1.262515e+00 -1.879359e+00 21 118 22
2.186695e-01 -1.111018e+00 -1.893903e+00 21 112 19
2.505790e-01 -1.225865e+00 -1.855663e+00 169 154 113
4.567766e-01 -6.905816e-02 -2.200044e+00 21 17 8
6.998213e-01 -9.087854e-01 -1.926110e+00 17 109 18
2.427697e+00 -8.783137e-01 -1.773752e+00 20 21 8
9.495377e-01 -8.097090e-01 -1.949032e+00 152 169 106
8.650912e-01 -9.067048e-01 -1.920693e+00 108 131 75
1.439715e+00 -5.568612e-01 -1.969452e+00 79 73 51
1.344477e+00 1.741539e-01 -2.088589e+00 198 181 138
-8.632240e-01 -1.220386e+00 -1.648370e+00 21 99 19
6.933360e-01 -8.577224e-01 -1.959155e+00 175 192 141
-2.331763e-01 7.119966e-01 -2.346163e+00 72 4 3
-2.587893e-01 -1.398773e+00 -1.846041e+00 113 134 69
6.345149e-01 -8.809874e-01 -1.880454e+00 22 103 13
-6.448156e-01 -1.170742e+00 -1.617353e+00 126 145 95
-8.995815e-01 -2.208527e-02 -2.418168e+00 154 107 38
-8.995815e-01 -2.208527e-02 -2.418168e+00 154 107 38
-8.949497e-01 1.451911e-03 -2.423547e+00 121 77 24
-5.986003e-01 -5.782007e-01 -2.215075e+00 103 37 0
-5.986003e-01 -5.782007e-01 -2.215075e+00 103 37 0
-6.075582e-01 -5.048471e-01 -2.238876e+00 104 36 1
-6.075582e-01 -5.048471e-01 -2.238876e+00 104 36 1
-5.888207e-01 -4.608606e-01 -2.248439e+00 150 87 30
-5.888207e-01 -4.608606e-01 -2.248439e+00 150 87 30
-5.174583e-01 -3.377325e-01 -2.279111e+00 138 77 21
-5.843586e-01 -3.039210e-01 -2.295588e+00 148 89 23
-8.901920e-01 -1.638635e-01 -2.376817e+00 102 49 4
-8.901920e-01 -1.638635e-01 -2.376817e+00 102 49 4
-3.780669e-01 -1.641163e-01 -2.312240e+00 72 17 0
-3.780669e-01 -1.641163e-01 -2.312240e+00 72 17 0
-4.472042e-01 -1.587364e-01 -2.323019e+00 80 20 0
-4.472042e-01 -1.587364e-01 -2.323019e+00 80 20 0
-8.267844e-01 -6.988968e-02 -2.393764e+00 112 59 3
-8.267844e-01 -6.988968e-02 -2.393764e+00 112 59 3
-1.014555e+00 -3.499192e-02 -2.433934e+00 123 73 11
-3.631746e-01 5.517773e-03 -2.360053e+00 86 35 1
-9.811529e-01 5.251576e-02 -2.453313e+00 152 107 34
-9.384102e-01 5.515923e-02 -2.447277e+00 126 73 3
-8.855477e-01 5.575408e-02 -2.441369e+00 156 109 36
-8.961291e-01 8.450609e-02 -2.446726e+00 108 67 13
-1.070178e-01 8.138341e-02 -2.348836e+00 145 87 23
-3.543459e-01 8.918207e-02 -2.387193e+00 113 59 0
-3.512627e-01 1.349654e-01 -2.397520e+00 87 22 0
-9.159921e-01 1.915027e-01 -2.485798e+00 149 101 29
-9.464312e-01 2.293187e-01 -2.495643e+00 103 53 7
-5.989240e-01 -6.177225e-01 -2.205893e+00 105 42 0
-1.046269e+00 -5.622399e-01 -2.289260e+00 171 101 45
-6.041111e-01 -3.900811e-01 -2.274642e+00 96 29 0
-4.896765e-01 -3.901676e-01 -2.261742e+00 145 80 21
-5.859676e-01 -3.824043e-01 -2.271639e+00 152 86 34
-9.723847e-01 -3.749540e-01 -2.338112e+00 118 59 0
-1.698888e-01 -3.520043e-01 -2.237235e+00 93 4 2
-1.882692e-01 -3.277502e-01 -2.237888e+00 170 86 49
-3.977388e-01 -1.587502e-01 -2.312789e+00 156 108 42
-4.281062e-01 -1.541071e-01 -2.322524e+00 151 100 34
-4.092700e-01 -1.177047e-01 -2.332281e+00 81 16 0
-8.000067e-01 -1.700370e-02 -2.411862e+00 158 109 33
-1.006425e+00 2.393562e-03 -2.442139e+00 107 59 4
-7.800095e-01 2.702477e-02 -2.420926e+00 146 98 34
-9.835457e-01 9.909285e-02 -2.462948e+00 157 111 34
-9.259398e-01 1.134769e-01 -2.458619e+00 152 108 33
-7.683165e-01 1.279844e-01 -2.445328e+00 121 73 3
-9.738846e-01 1.355953e-01 -2.473017e+00 153 109 36
-9.255770e-01 1.364334e-01 -2.468432e+00 117 68 4
-4.219333e-01 1.837678e-01 -2.414702e+00 80 22 5
-9.999164e-01 2.640440e-01 -2.514264e+00 105 57 0
-1.017921e+00 2.960800e-01 -2.518261e+00 159 116 47
-9.565065e-01 3.408667e-01 -2.537457e+00 92 39 4
-8.800488e-01 3.556880e-01 -2.516593e+00 138 54 17
-1.052038e+00 3.865946e-01 -2.538994e+00 168 108 44
-1.028645e+00 -4.509206e-01 -2.320837e+00 111 56 3
-1.029510e+00 -3.004672e-01 -2.369008e+00 110 55 1
-6.140470e-01 -2.320822e-01 -2.324782e+00 80 14 3
-1.029520e+00 -1.388882e-01 -2.406045e+00 113 53 4
-1.029520e+00 -1.388882e-01 -2.406045e+00 113 53 4
-9.155439e-01 -4.119079e-02 -2.416069e+00 100 47 0
-1.018740e+00 -1.177007e-02 -2.439386e+00 154 107 34
-4.591891e-01 7.793983e-03 -2.374548e+00 90 40 0
-1.031587e+00 2.110658e-02 -2.459096e+00 113 66 0
-6.917816e-01 2.299803e-02 -2.407670e+00 99 53 0
-7.190698e-01 4.504842e-02 -2.415859e+00 148 102 40
-9.987283e-01 9.055345e-02 -2.462774e+00 121 64 1
-8.776874e-02 7.777845e-02 -2.348816e+00 76 16 3
-1.117750e+00 1.061189e-01 -2.489230e+00 122 45 5
-4.771925e-01 1.831880e-01 -2.427388e+00 72 16 6
-8.991207e-01 2.345741e-01 -2.489684e+00 162 113 47
-8.613222e-01 2.464468e-01 -2.491275e+00 92 44 1
-1.125693e+00 3.183146e-01 -2.548593e+00 130 56 13
-9.942369e-01 3.608616e-01 -2.537660e+00 162 114 42
-1.045285e+00 4.551638e-01 -2.562572e+00 182 105 65
-1.126734e+00 5.203823e-01 -2.584092e+00 123 57 9
-7.623012e-01 7.280191e-01 -2.602663e+00 24 20 26
8.812804e-01 -8.454198e-01 -1.951678e+00 180 191 125
8.812804e-01 -8.454198e-01 -1.951678e+00 180 191 125
6.000298e-01 -9.531089e-01 -1.946706e+00 189 200 131
1.100733e+00 -6.590676e-01 -1.950525e+00 97 134 54
-2.280541e-01 -2.531240e-01 -2.240772e+00 130 28 0
6.485895e-01 -8.565125e-01 -1.942425e+00 121 179 95
-2.226590e-01 2.632447e-01 1.306275e-01 0 255 0
-2.188134e-01 2.589685e-01 8.095935e-02 255 255 0
-7.557739e-01 1.094000e+00 -2.662849e-01 255 0 0
-7.530956e-01 1.080216e+00 -3.142727e-01 255 255 0
-1.091070e-01 1.495290e-01 1.471332e-01 0 255 0
-1.050520e-01 1.442656e-01 9.757667e-02 255 255 0
-1.021068e-01 1.629123e-01 1.561307e-01 255 0 0
-9.802255e-02 1.580669e-01 1.065339e-01 255 255 0
-8.838403e-02 1.716843e-01 1.642620e-01 0 255 0
-8.426074e-02 1.672100e-01 1.146336e-01 255 255 0
-1.224383e-01 1.997758e-01 1.469186e-01 255 0 0
