ply
format ascii 1.0
element face 0
property list uchar int vertex_indices
element vertex 933
property float x
property float y
property float z
property uchar diffuse_red
property uchar diffuse_green
property uchar diffuse_blue
end_header
-3.267699e-01 2.795498e-01 -1.843668e+00 28 24 43
-2.431547e-01 3.093751e-01 -1.853080e+00 46 34 35
-2.453232e-01 2.949427e-01 -1.828718e+00 172 158 154
1.282246e+00 6.016917e-01 -1.732307e+00 58 52 32
-4.078815e-01 -7.313802e-01 -1.832473e+00 158 163 122
-3.574507e-01 -7.117403e-01 -1.821725e+00 156 177 130
-4.252304e-01 -7.205964e-01 -1.850291e+00 154 144 99
-3.333756e-01 -7.100787e-01 -1.841509e+00 45 116 47
-3.991225e-01 -7.057922e-01 -1.853952e+00 147 173 90
-2.904597e-01 -6.999941e-01 -1.825861e+00 150 156 92
-3.632026e-01 -7.082094e-01 -1.863275e+00 62 154 68
2.937041e-01 -6.428131e-01 -1.629649e+00 76 73 59
2.999648e-01 -6.395365e-01 -1.630104e+00 69 66 49
2.982457e-01 -5.870737e-01 -1.612775e+00 65 64 50
3.075048e-01 -5.920505e-01 -1.621513e+00 65 64 50
-2.039558e-01 -6.251601e-01 -1.808176e+00 201 232 147
2.441982e-01 -5.657773e-01 -1.611050e+00 33 31 19
2.447188e-01 -5.695873e-01 -1.641532e+00 88 86 73
6.662504e-01 -5.508561e-01 -1.552002e+00 135 126 76
1.876170e-01 -5.657586e-01 -1.685168e+00 68 66 53
-6.051799e-02 -5.696705e-01 -1.768150e+00 59 106 43
-1.054147e-01 -5.620269e-01 -1.781947e+00 59 93 52
-3.666212e-02 -5.505087e-01 -1.752780e+00 126 209 117
-9.925734e-02 -5.566598e-01 -1.781179e+00 201 195 166
4.014978e-02 -5.553978e-01 -1.755848e+00 137 137 79
-5.124580e-02 -5.512925e-01 -1.767236e+00 15 120 17
-8.166868e-02 -5.525361e-01 -1.779245e+00 65 96 49
5.115961e-01 -4.837170e-01 -1.560019e+00 75 71 59
-2.494432e-03 -5.145277e-01 -1.752991e+00 72 107 57
-5.735656e-03 -5.126703e-01 -1.754337e+00 174 170 133
4.767300e-02 -5.065617e-01 -1.732915e+00 23 118 18
1.254182e-01 -5.053041e-01 -1.716549e+00 91 104 65
1.261292e-01 -5.055958e-01 -1.717791e+00 91 104 65
2.478642e-01 -4.956160e-01 -1.667417e+00 96 94 81
2.502268e-01 -4.965059e-01 -1.670079e+00 96 94 81
1.118524e-01 -5.014163e-01 -1.717642e+00 29 73 10
2.570190e-01 -4.903003e-01 -1.662710e+00 82 80 66
5.682097e-02 -4.905545e-01 -1.731261e+00 91 155 62
6.412871e-02 -4.904863e-01 -1.730934e+00 188 212 124
1.346956e-01 -4.852638e-01 -1.710659e+00 48 103 43
1.715078e-01 -4.827738e-01 -1.703562e+00 66 81 58
2.761148e-01 -4.758684e-01 -1.662496e+00 57 55 43
2.762296e-01 -4.758299e-01 -1.662608e+00 57 55 43
1.484439e-01 -4.784664e-01 -1.702951e+00 132 161 102
1.500614e-01 -4.757802e-01 -1.699998e+00 23 71 5
1.394804e-01 -4.749039e-01 -1.699532e+00 160 184 124
1.073257e-01 -4.725051e-01 -1.715497e+00 180 220 141
1.302364e-01 -4.726108e-01 -1.723528e+00 171 199 126
8.606003e-02 -4.679692e-01 -1.725602e+00 157 181 116
1.137103e-01 -4.632197e-01 -1.706325e+00 44 88 6
3.004414e-01 -4.565294e-01 -1.655049e+00 58 56 44
1.362485e-01 -4.604770e-01 -1.698914e+00 51 110 43
9.469998e-02 -4.624508e-01 -1.726456e+00 22 18 0
1.969078e-01 -4.577411e-01 -1.703273e+00 154 184 124
1.650472e-01 -4.499722e-01 -1.696943e+00 66 80 19
2.399984e-01 -4.451914e-01 -1.683895e+00 89 78 60
1.680234e-01 -4.428141e-01 -1.696418e+00 51 106 25
3.264462e-01 -4.340114e-01 -1.640977e+00 93 91 78
1.649950e-01 -4.401750e-01 -1.696559e+00 138 190 103
-2.382422e-01 -4.658720e-01 -1.870333e+00 105 39 2
-2.384035e-01 -4.653288e-01 -1.867816e+00 105 39 2
-2.063271e-01 -4.641227e-01 -1.863985e+00 152 89 30
-2.484383e-01 -4.643031e-01 -1.870536e+00 107 40 4
-2.482295e-01 -4.654412e-01 -1.875654e+00 107 40 4
-2.481928e-01 -4.643691e-01 -1.870234e+00 107 40 4
2.224951e-01 -4.372728e-01 -1.684021e+00 181 208 155
-1.962884e-01 -4.614652e-01 -1.855692e+00 102 37 1
-2.030749e-01 -4.611771e-01 -1.857005e+00 94 30 0
2.316379e-01 -4.374316e-01 -1.688338e+00 108 113 70
-2.100509e-01 -4.625042e-01 -1.866272e+00 125 58 2
-2.100509e-01 -4.625042e-01 -1.866272e+00 125 58 2
-2.512484e-01 -4.637666e-01 -1.882989e+00 153 88 24
-2.391844e-01 -4.591075e-01 -1.866774e+00 108 43 4
-2.393368e-01 -4.572132e-01 -1.859080e+00 108 43 4
2.356651e-01 -4.347527e-01 -1.683485e+00 98 75 37
-2.479386e-01 -4.592857e-01 -1.872221e+00 116 47 8
2.236537e-01 -4.321335e-01 -1.681934e+00 186 194 137
-6.896439e-02 -4.584952e-01 -1.845349e+00 139 45 30
8.915222e-02 -4.692957e-01 -1.868949e+00 140 118 88
-7.508619e-02 -4.531240e-01 -1.836925e+00 101 5 2
2.256122e-01 -4.240246e-01 -1.675743e+00 180 168 119
-3.544123e-01 -4.636332e-01 -1.941341e+00 178 106 56
-1.032241e-01 -4.497369e-01 -1.842101e+00 146 56 37
2.165481e-01 -4.238919e-01 -1.681756e+00 104 123 61
2.089249e-01 -4.239785e-01 -1.683783e+00 199 221 148
-2.265936e-01 -4.396667e-01 -1.860312e+00 145 80 23
-2.146073e-01 -4.410291e-01 -1.866418e+00 122 48 3
-1.986427e-01 -4.362732e-01 -1.847561e+00 102 34 2
-2.304973e-01 -4.386424e-01 -1.863886e+00 92 30 0
-1.988484e-01 -4.333898e-01 -1.853395e+00 96 29 3
-2.430365e-01 -4.332541e-01 -1.867839e+00 156 95 40
-2.572472e-01 -4.323015e-01 -1.865290e+00 154 84 28
-3.139306e-01 -4.366191e-01 -1.893968e+00 102 42 2
2.099078e-01 -4.089187e-01 -1.691003e+00 76 118 53
-3.444928e-02 -4.271358e-01 -1.823101e+00 88 6 6
-2.004028e-01 -4.239862e-01 -1.853160e+00 96 27 2
-2.005891e-01 -4.233869e-01 -1.848517e+00 96 27 2
-2.237490e-01 -4.240701e-01 -1.854650e+00 86 17 2
-2.320976e-01 -4.236010e-01 -1.857967e+00 89 27 1
-2.442222e-01 -4.184822e-01 -1.863291e+00 157 93 42
-3.458449e-01 -4.193460e-01 -1.893475e+00 116 59 10
-4.509480e-02 -4.150364e-01 -1.819016e+00 89 1 2
-3.538391e-01 -4.216515e-01 -1.928079e+00 153 99 37
4.107206e-01 -3.862346e-01 -1.626281e+00 75 73 60
4.175362e-01 -3.873271e-01 -1.631844e+00 75 73 60
-3.714003e-01 -4.165844e-01 -1.928340e+00 178 111 57
-5.660767e-02 -4.050629e-01 -1.828195e+00 134 37 21
4.056529e-01 -3.795667e-01 -1.619137e+00 70 68 56
-2.523450e-01 -4.040611e-01 -1.863563e+00 155 84 25
-4.116301e-01 -4.142341e-01 -1.977747e+00 138 93 51
3.220449e-01 -3.817270e-01 -1.680416e+00 74 71 53
-2.462305e-01 -3.895223e-01 -1.848546e+00 97 27 3
-3.175498e-01 -3.940866e-01 -1.889471e+00 159 94 41
-3.171863e-01 -3.933310e-01 -1.884561e+00 159 94 41
3.344323e-01 -3.746849e-01 -1.677434e+00 71 68 58
3.341080e-01 -3.746294e-01 -1.677163e+00 71 68 58
-3.141180e-01 -3.922833e-01 -1.889129e+00 113 46 4
-3.582841e-01 -3.857348e-01 -1.908416e+00 160 100 40
-3.616079e-01 -3.707239e-01 -1.903561e+00 164 105 39
3.981308e-01 -3.504536e-01 -1.662345e+00 91 89 77
-2.302024e-01 -3.584366e-01 -1.838215e+00 103 42 6
-1.034515e-01 -3.539461e-01 -1.803789e+00 141 42 22
-3.321009e-01 -3.592972e-01 -1.887181e+00 108 48 1
-1.211685e-01 -3.515549e-01 -1.807685e+00 154 62 44
-1.195812e-01 -3.526405e-01 -1.816228e+00 154 62 44
-1.238407e-01 -3.499177e-01 -1.816016e+00 98 12 4
-1.641310e-01 -3.517737e-01 -1.835507e+00 180 82 47
-2.148782e-01 -3.492696e-01 -1.837849e+00 96 29 1
-6.761710e-02 -3.445425e-01 -1.802261e+00 129 36 19
-6.548129e-02 -3.454937e-01 -1.811257e+00 129 36 19
-3.680180e-01 -3.512659e-01 -1.896412e+00 160 107 36
-3.696398e-01 -3.523402e-01 -1.909454e+00 160 107 36
-9.363247e-02 -3.426247e-01 -1.802303e+00 87 11 4
-1.322681e-01 -3.403620e-01 -1.815442e+00 91 0 0
-1.304961e-01 -3.411085e-01 -1.824421e+00 91 0 0
-2.113661e-01 -3.421545e-01 -1.844799e+00 159 96 34
-8.306799e-02 -3.372849e-01 -1.813568e+00 136 43 28
-1.029415e-01 -3.374931e-01 -1.831000e+00 141 54 34
-9.298831e-02 -3.342775e-01 -1.810055e+00 82 2 1
-3.607816e-02 -3.326231e-01 -1.808507e+00 80 1 0
-5.272379e-02 -3.319468e-01 -1.807433e+00 95 6 2
-1.160966e-02 -3.265475e-01 -1.786244e+00 95 2 2
-1.709998e-01 -3.280351e-01 -1.815369e+00 140 53 17
-3.713354e-01 -3.325338e-01 -1.900152e+00 124 62 3
-3.713354e-01 -3.325338e-01 -1.900152e+00 124 62 3
-3.729482e-02 -3.264427e-01 -1.805157e+00 79 1 0
-9.151878e-03 -3.262953e-01 -1.822148e+00 131 37 24
-1.845189e-01 -3.256520e-01 -1.831326e+00 126 48 5
-5.381249e-02 -3.227185e-01 -1.806625e+00 135 46 28
-2.091945e-01 -3.235790e-01 -1.829697e+00 158 99 25
1.045316e-01 -3.241192e-01 -1.806684e+00 51 44 36
4.648790e-01 -3.172145e-01 -1.689071e+00 60 54 41
-5.847226e-02 -3.196311e-01 -1.800956e+00 104 3 4
-3.758141e-01 -3.251075e-01 -1.904948e+00 116 56 1
-3.439756e-02 -3.165953e-01 -1.796905e+00 95 9 5
-2.541046e-01 -3.173289e-01 -1.843245e+00 99 35 1
-1.492473e-01 -3.160614e-01 -1.826631e+00 126 34 1
-2.143745e-01 -3.149258e-01 -1.823777e+00 150 92 48
-3.960130e-01 -3.214033e-01 -1.918297e+00 133 56 13
4.345746e-01 -3.081597e-01 -1.674485e+00 57 53 42
-2.505898e-01 -3.155346e-01 -1.841182e+00 161 105 46
-2.211272e-01 -3.137492e-01 -1.837280e+00 159 101 32
-2.543462e-01 -3.104816e-01 -1.834730e+00 107 45 8
-2.294661e-02 -3.060475e-01 -1.790782e+00 89 3 0
-1.521365e-01 -3.046318e-01 -1.824953e+00 135 45 11
-2.548456e-01 -3.056982e-01 -1.841529e+00 152 95 28
-2.442877e-01 -3.044172e-01 -1.838211e+00 85 28 0
-3.738742e-01 -3.074174e-01 -1.898423e+00 167 104 32
-4.026381e-01 -3.089093e-01 -1.923861e+00 163 99 55
-1.196292e-01 -3.019561e-01 -1.804819e+00 74 1 1
5.481253e-02 -3.023870e-01 -1.813821e+00 151 129 87
-2.515850e-01 -3.028376e-01 -1.838599e+00 99 45 3
-7.742452e-02 -3.004997e-01 -1.799075e+00 83 0 0
-2.652138e-01 -3.016012e-01 -1.840324e+00 99 42 1
-1.327586e-01 -2.977657e-01 -1.801858e+00 144 41 25
-1.561409e-01 -2.955861e-01 -1.840487e+00 132 48 12
-1.374037e-01 -2.963241e-01 -1.829337e+00 181 87 53
-1.368457e-01 -2.964064e-01 -1.831204e+00 181 87 53
-8.584654e-02 -2.924367e-01 -1.794464e+00 150 55 45
-8.496311e-02 -2.928457e-01 -1.797866e+00 150 55 45
-1.265184e-01 -2.917965e-01 -1.810698e+00 136 40 24
-8.896941e-02 -2.906138e-01 -1.795480e+00 101 6 6
-3.774621e-01 -2.937807e-01 -1.883581e+00 128 69 1
-1.201139e-01 -2.877516e-01 -1.801831e+00 79 3 2
-1.091333e-01 -2.850373e-01 -1.796618e+00 71 0 0
-4.526802e-02 -2.840535e-01 -1.798042e+00 72 0 0
-1.642278e-01 -2.844296e-01 -1.813094e+00 179 82 46
-3.451754e-02 -2.820578e-01 -1.791342e+00 84 0 0
-6.432094e-02 -2.824740e-01 -1.795591e+00 89 1 0
-2.709671e-01 -2.849065e-01 -1.845811e+00 83 22 1
-2.684328e-01 -2.815196e-01 -1.836667e+00 165 105 41
-3.969958e-02 -2.770399e-01 -1.793551e+00 78 1 1
4.340972e-01 -2.692682e-01 -1.708103e+00 216 203 152
-2.972737e-01 -2.763863e-01 -1.850585e+00 95 41 8
-6.023064e-02 -2.732483e-01 -1.791969e+00 87 0 0
-3.218950e-01 -2.757890e-01 -1.883935e+00 82 22 0
2.545219e-01 -2.698123e-01 -1.777267e+00 29 26 14
-1.888505e-01 -2.668548e-01 -1.820707e+00 131 45 7
-1.176961e-01 -2.660335e-01 -1.799756e+00 183 83 53
-4.390989e-02 -2.635946e-01 -1.800124e+00 86 3 1
-4.020491e-01 -2.670077e-01 -1.909418e+00 133 60 15
2.647230e-01 -2.588912e-01 -1.746134e+00 66 65 47
4.402972e-01 -2.556782e-01 -1.725241e+00 216 199 156
5.343607e-02 -2.580101e-01 -1.806454e+00 146 120 75
-8.746250e-02 -2.576595e-01 -1.795926e+00 167 64 36
-2.317395e-01 -2.591946e-01 -1.836679e+00 155 102 25
-4.110631e-01 -2.574488e-01 -1.913467e+00 141 84 38
-3.585807e-01 -2.572923e-01 -1.870509e+00 158 105 37
-4.081634e-01 -2.576531e-01 -1.919075e+00 167 97 54
-2.179055e-01 -2.546890e-01 -1.817151e+00 87 29 10
-2.213280e-01 -2.488944e-01 -1.804236e+00 149 90 10
-3.906598e-02 -2.433743e-01 -1.787919e+00 158 66 39
-1.708782e-01 -2.413491e-01 -1.944533e+00 201 113 77
-4.041530e-01 -2.404211e-01 -1.896968e+00 135 62 19
-2.024997e-02 -2.328645e-01 -1.788680e+00 156 61 36
-2.032717e-02 -2.330179e-01 -1.787608e+00 156 61 36
-2.726301e-01 -2.309849e-01 -1.832874e+00 152 98 22
-4.290067e-02 -2.278314e-01 -1.781200e+00 154 64 37
-2.294379e-01 -2.280223e-01 -1.822055e+00 100 42 3
-2.294379e-01 -2.280223e-01 -1.822055e+00 100 42 3
-2.153547e-01 -2.261468e-01 -1.815493e+00 178 131 60
-1.061893e-01 -2.239747e-01 -1.776934e+00 171 82 48
-3.576652e-01 -2.253583e-01 -1.866352e+00 104 53 0
1.489490e-03 -2.204835e-01 -1.776509e+00 152 58 33
-9.605399e-02 -2.221086e-01 -1.782309e+00 167 70 38
-2.304708e-01 -2.236289e-01 -1.816604e+00 96 37 4
-2.304971e-01 -2.236495e-01 -1.816862e+00 96 37 4
-3.694784e-01 -2.199329e-01 -1.893454e+00 111 60 5
-3.870364e-01 -2.200524e-01 -1.882970e+00 137 85 10
-3.135790e-01 -2.189000e-01 -1.844834e+00 167 123 55
-3.136183e-01 -2.189013e-01 -1.845061e+00 167 123 55
-3.209556e-01 -2.121313e-01 -1.856503e+00 163 110 33
-5.000399e-02 -2.087366e-01 -1.773722e+00 159 65 39
-9.185921e-02 -2.085009e-01 -1.783398e+00 180 85 55
-9.689782e-02 -2.097856e-01 -1.779844e+00 123 23 4
-4.631956e-02 -2.052662e-01 -1.776617e+00 119 23 1
-2.305078e-01 -2.081931e-01 -1.813913e+00 105 46 6
-2.303774e-01 -2.081002e-01 -1.815396e+00 105 46 6
2.658729e-01 -1.988805e-01 -1.718196e+00 215 198 163
-3.386477e-01 -2.042085e-01 -1.856510e+00 156 100 22
-3.593873e-01 -2.012877e-01 -1.863146e+00 163 114 43
-3.869197e-01 -2.007044e-01 -1.876893e+00 155 113 40
-6.326292e-02 -1.985130e-01 -1.771415e+00 120 21 0
-1.565792e-01 -1.999345e-01 -1.789073e+00 180 108 51
-3.526868e-01 -2.002660e-01 -1.856396e+00 153 101 23
-4.073700e-02 -1.974554e-01 -1.772566e+00 163 62 36
-3.279364e-01 -1.966112e-01 -1.855401e+00 128 71 4
-2.321780e-01 -1.961556e-01 -1.814411e+00 77 28 2
-2.318633e-01 -1.957629e-01 -1.822805e+00 77 28 2
-3.059560e-01 -1.957963e-01 -1.831337e+00 153 103 25
-2.979594e-01 -1.930865e-01 -1.838294e+00 107 55 3
-3.877485e-01 -1.887928e-01 -1.894032e+00 162 115 43
-2.988421e-01 -1.903988e-01 -1.826404e+00 106 56 4
-4.193195e-01 -1.880941e-01 -1.895842e+00 139 94 45
-3.360724e-01 -1.867442e-01 -1.861498e+00 156 114 42
-4.103527e-01 -1.853683e-01 -1.893727e+00 129 55 11
-1.274025e-01 -1.847618e-01 -1.788171e+00 91 27 0
-3.828033e-01 -1.793388e-01 -1.871141e+00 129 73 1
-3.834571e-01 -1.788557e-01 -1.876242e+00 129 73 1
-9.739495e-02 -1.790358e-01 -1.774611e+00 72 12 0
-9.664002e-02 -1.788637e-01 -1.778194e+00 72 12 0
-2.906502e-01 -1.793294e-01 -1.830358e+00 121 56 2
-1.067171e-01 -1.762016e-01 -1.780612e+00 152 91 26
-9.028260e-02 -1.766472e-01 -1.773965e+00 70 15 1
-3.190143e-01 -1.747393e-01 -1.839033e+00 119 59 1
-3.190728e-01 -1.747533e-01 -1.838745e+00 119 59 1
-3.588425e-01 -1.739117e-01 -1.856029e+00 113 68 5
-3.611079e-01 -1.725803e-01 -1.846652e+00 162 114 46
-7.059664e-02 -1.689658e-01 -1.772353e+00 152 97 49
-7.059664e-02 -1.689658e-01 -1.772353e+00 152 97 49
-1.353714e-01 -1.691493e-01 -1.782779e+00 84 24 5
-2.132989e-01 -1.690159e-01 -1.801950e+00 95 35 2
-7.380741e-02 -1.657054e-01 -1.773321e+00 84 22 10
-4.186120e-01 -1.628468e-01 -1.895409e+00 145 77 31
-1.356946e-01 -1.652765e-01 -1.781951e+00 77 14 3
-1.363099e-01 -1.658840e-01 -1.778802e+00 77 14 3
-2.242059e-01 -1.660468e-01 -1.807212e+00 115 60 1
-3.450896e-01 -1.650150e-01 -1.848293e+00 161 107 35
-3.407899e-01 -1.651757e-01 -1.844290e+00 126 69 5
-3.415930e-01 -1.638076e-01 -1.854202e+00 126 69 5
-1.174083e-01 -1.626840e-01 -1.779164e+00 163 96 31
-7.651982e-02 -1.616840e-01 -1.764391e+00 141 81 22
-3.945906e-01 -1.583300e-01 -1.882866e+00 123 74 9
-2.255381e-01 -1.618832e-01 -1.801206e+00 110 50 2
-2.688070e-01 -1.611868e-01 -1.814458e+00 129 70 4
-2.688070e-01 -1.611868e-01 -1.814458e+00 129 70 4
-2.343176e-01 -1.616364e-01 -1.800266e+00 112 50 4
-2.825038e-01 -1.609493e-01 -1.823618e+00 115 64 0
-3.750219e-01 -1.582621e-01 -1.862825e+00 125 73 1
-3.356546e-01 -1.584949e-01 -1.842086e+00 114 62 2
-3.362381e-01 -1.575042e-01 -1.848626e+00 114 62 2
-3.154441e-01 -1.567461e-01 -1.835469e+00 119 69 3
-9.803762e-02 -1.543445e-01 -1.778843e+00 145 84 18
-3.240794e-01 -1.552400e-01 -1.835438e+00 165 119 44
-3.239148e-01 -1.558306e-01 -1.831121e+00 165 119 44
-3.611527e-01 -1.460093e-01 -1.873524e+00 155 109 31
1.306021e-02 -1.472282e-01 -1.783012e+00 180 113 65
1.485715e-02 -1.461098e-01 -1.787328e+00 180 113 65
-3.285389e-01 -1.522128e-01 -1.845545e+00 120 74 3
-2.364902e-01 -1.509685e-01 -1.811412e+00 84 18 0
-3.864677e-01 -1.476584e-01 -1.868805e+00 124 72 2
-2.321213e-01 -1.482589e-01 -1.805737e+00 160 102 41
-2.319590e-01 -1.479286e-01 -1.806667e+00 160 102 41
-5.080906e-02 -1.452308e-01 -1.767452e+00 83 18 2
-2.394721e-01 -1.488671e-01 -1.800064e+00 168 111 59
-4.761400e-02 -1.448724e-01 -1.765809e+00 148 85 32
-2.365117e-01 -1.461054e-01 -1.798397e+00 96 35 9
-2.429692e-01 -1.459747e-01 -1.806896e+00 88 21 10
-2.430921e-01 -1.457370e-01 -1.806942e+00 88 21 10
-1.625332e-01 -1.394532e-01 -1.808313e+00 149 94 28
-2.031837e-01 -1.425882e-01 -1.797335e+00 183 118 60
-1.009004e-01 -1.410082e-01 -1.770320e+00 108 40 1
-1.003179e-01 -1.404968e-01 -1.773040e+00 108 40 1
-6.922819e-02 -1.331429e-01 -1.775196e+00 142 81 24
-2.563257e-01 -1.376869e-01 -1.804637e+00 151 98 27
-2.744735e-01 -1.370326e-01 -1.810382e+00 99 38 11
-2.603184e-01 -1.331390e-01 -1.820880e+00 88 35 0
-3.883000e-01 -1.319168e-01 -1.867974e+00 130 82 5
-2.534491e-01 -1.338834e-01 -1.809126e+00 75 20 2
-2.709306e-01 -1.338916e-01 -1.812008e+00 166 120 52
-3.744445e-01 -1.290618e-01 -1.869057e+00 138 87 22
-2.638733e-01 -1.330830e-01 -1.813559e+00 158 110 46
-2.638733e-01 -1.330830e-01 -1.813559e+00 158 110 46
1.051313e-02 -1.260310e-01 -1.761807e+00 153 99 37
-3.024239e-01 -1.302432e-01 -1.827895e+00 102 49 2
-3.022818e-01 -1.307901e-01 -1.825630e+00 102 49 2
-2.921697e-01 -1.332052e-01 -1.809730e+00 154 104 40
-1.602426e-01 -1.306960e-01 -1.780966e+00 153 95 38
-2.579243e-01 -1.319630e-01 -1.801347e+00 161 109 52
-3.083970e-01 -1.301455e-01 -1.826185e+00 96 40 3
-3.300460e-01 -1.300627e-01 -1.828245e+00 152 99 32
-3.299527e-01 -1.301548e-01 -1.828106e+00 152 99 32
-1.642821e-01 -1.301620e-01 -1.777206e+00 69 6 0
2.209586e-02 -1.225346e-01 -1.767192e+00 178 114 63
-2.613116e-01 -1.307800e-01 -1.799873e+00 101 41 5
-1.061410e-01 -1.252849e-01 -1.766805e+00 75 11 0
-1.047861e-01 -1.241714e-01 -1.772344e+00 75 11 0
-3.647465e-01 -1.232638e-01 -1.854295e+00 153 105 32
-3.634694e-01 -1.181790e-01 -1.850458e+00 121 74 6
-3.815704e-01 -1.196856e-01 -1.852515e+00 119 71 7
-3.562848e-01 -1.166885e-01 -1.843891e+00 95 47 1
-1.011893e-01 -1.173298e-01 -1.759945e+00 83 22 9
-2.035577e-01 -1.168535e-01 -1.793252e+00 183 105 54
-2.290074e-01 -1.153961e-01 -1.799919e+00 77 16 1
-2.289962e-01 -1.132454e-01 -1.809860e+00 77 16 1
-5.546209e-02 -1.100950e-01 -1.761797e+00 150 86 33
-1.614170e-01 -1.121355e-01 -1.779481e+00 168 112 65
-1.620664e-01 -1.131042e-01 -1.775566e+00 168 112 65
-3.710698e-01 -1.071223e-01 -1.853959e+00 161 107 42
-2.437063e-01 -1.094197e-01 -1.801104e+00 74 13 0
-2.300323e-01 -1.115434e-01 -1.785794e+00 97 33 5
-1.619821e-01 -1.060035e-01 -1.787769e+00 92 31 0
-1.626691e-01 -1.074029e-01 -1.782390e+00 92 31 0
-2.373296e-01 -1.109097e-01 -1.789291e+00 89 34 1
4.057524e-03 -9.923543e-02 -1.755438e+00 110 52 0
3.153783e-02 -9.308104e-02 -1.763689e+00 178 115 73
3.612598e-02 -9.070288e-02 -1.773080e+00 178 115 73
-3.992707e-01 -9.741640e-02 -1.866741e+00 120 66 4
3.728349e-02 -9.165073e-02 -1.767605e+00 115 63 16
-3.705206e-01 -9.312400e-02 -1.843060e+00 164 104 37
-3.831818e-01 -9.134684e-02 -1.855359e+00 86 33 2
1.087830e-02 -8.792015e-02 -1.756014e+00 129 72 6
9.654861e-03 -8.453318e-02 -1.764084e+00 153 100 33
-3.853134e-01 -9.012933e-02 -1.843912e+00 162 114 49
-2.792156e-01 -9.500412e-02 -1.793604e+00 187 98 63
-2.837543e-01 -8.945210e-02 -1.814437e+00 131 51 14
-3.836637e-01 -8.521853e-02 -1.855303e+00 103 50 5
-3.823865e-01 -8.740409e-02 -1.847253e+00 103 50 5
-3.951221e-01 -8.541848e-02 -1.853964e+00 110 58 8
-3.638137e-01 -8.722895e-02 -1.837573e+00 170 123 63
-7.245915e-02 -8.613777e-02 -1.755435e+00 92 27 1
-7.039363e-02 -8.402728e-02 -1.760907e+00 92 27 1
-7.858358e-02 -8.340576e-02 -1.764974e+00 66 8 4
-3.877080e-01 -8.420532e-02 -1.842709e+00 121 79 6
-3.883832e-01 -8.270931e-02 -1.850044e+00 121 79 6
-4.848578e-03 -7.900621e-02 -1.757691e+00 155 101 32
-1.017203e-01 -8.269463e-02 -1.762463e+00 72 13 7
-7.053995e-02 -7.953327e-02 -1.753723e+00 98 36 0
-7.053995e-02 -7.953327e-02 -1.753723e+00 98 36 0
-1.781589e-01 -8.044773e-02 -1.772938e+00 176 110 34
-3.601506e-01 -7.860362e-02 -1.831749e+00 178 104 68
1.204248e-02 -7.065822e-02 -1.757379e+00 128 69 5
-1.717264e-01 -7.877701e-02 -1.775751e+00 146 88 30
2.713854e-03 -7.346291e-02 -1.747277e+00 156 103 36
7.967907e-03 -7.008439e-02 -1.758367e+00 156 103 36
-1.465796e-01 -7.868547e-02 -1.768262e+00 93 31 0
-4.235132e-01 -6.900812e-02 -1.873034e+00 130 65 19
-5.962183e-02 -7.239484e-02 -1.760219e+00 73 26 8
-5.487476e-02 -7.263612e-02 -1.751613e+00 77 32 3
-3.673642e-02 -6.543657e-02 -1.770718e+00 159 112 61
-1.458580e-01 -7.482886e-02 -1.760669e+00 97 33 7
-1.679840e-01 -7.283634e-02 -1.773845e+00 76 21 0
-3.686810e-01 -7.290192e-02 -1.828106e+00 179 95 58
-3.704210e-01 -6.925208e-02 -1.840170e+00 179 95 58
-1.543741e-01 -7.172922e-02 -1.772016e+00 86 26 6
-1.195372e-01 -7.112599e-02 -1.759684e+00 151 94 29
-3.637763e-02 -6.527060e-02 -1.755058e+00 81 32 0
-1.267984e-01 -6.912333e-02 -1.763189e+00 80 27 10
-1.269827e-01 -6.926281e-02 -1.761986e+00 80 27 10
-1.445295e-01 -7.052889e-02 -1.759309e+00 105 47 9
-1.426628e-01 -6.805924e-02 -1.766332e+00 105 47 9
-3.545985e-01 -6.783014e-02 -1.813878e+00 184 81 48
-1.555032e-01 -6.499877e-02 -1.769844e+00 163 104 25
-3.488851e-02 -6.280889e-02 -1.745790e+00 145 91 31
-1.440354e-01 -6.359510e-02 -1.768788e+00 164 110 42
-1.335869e-01 -5.580749e-02 -1.775613e+00 128 37 2
-3.516413e-01 -6.127776e-02 -1.807261e+00 182 84 47
-3.516413e-01 -6.127776e-02 -1.807261e+00 182 84 47
-6.291699e-04 -4.770080e-02 -1.758020e+00 110 53 0
-3.206979e-02 -3.451592e-02 -1.750163e+00 172 122 55
-2.643047e-01 -5.605390e-03 -1.802908e+00 197 81 39
-2.716490e-01 -5.044600e-03 -1.803264e+00 206 99 55
-2.899670e-01 -6.140331e-03 -1.794916e+00 239 145 101
-1.597092e-01 8.768059e-03 -1.779502e+00 186 114 78
2.951098e-02 1.203686e-02 -1.741963e+00 145 83 40
3.366421e-02 1.620386e-02 -1.750028e+00 145 83 40
-3.287192e-01 4.121845e-03 -1.802754e+00 193 90 49
-1.390889e-01 2.225753e-02 -1.796047e+00 222 150 120
-1.512116e-01 2.212056e-02 -1.792067e+00 131 28 9
-1.461317e-01 1.831191e-02 -1.779939e+00 132 30 9
-1.772028e-01 2.611414e-02 -1.753349e+00 39 32 38
3.080700e-02 4.850843e-02 -1.747538e+00 177 89 46
-1.557698e-01 3.293182e-02 -1.752113e+00 89 83 98
-1.690171e-01 3.759022e-02 -1.766098e+00 16 10 20
-1.759780e-01 3.740714e-02 -1.763118e+00 14 12 26
-3.220510e-01 4.314779e-02 -1.813229e+00 79 77 90
1.174963e-02 7.934283e-02 -1.739465e+00 82 25 5
1.614802e-02 9.499640e-02 -1.744804e+00 30 18 23
-3.231310e-01 1.458608e-01 -1.805316e+00 54 53 67
-1.071178e-01 1.957768e-01 -1.768932e+00 57 44 61
-1.248166e-01 1.933027e-01 -1.768454e+00 111 100 110
-1.225931e-01 1.981708e-01 -1.773906e+00 111 100 110
-1.875770e-01 1.912466e-01 -1.780297e+00 56 44 55
-2.193217e-01 1.965476e-01 -1.794587e+00 58 47 63
-2.359418e-01 2.066331e-01 -1.816120e+00 117 103 111
-2.359108e-01 2.129947e-01 -1.826190e+00 117 103 111
-1.373740e-01 1.986684e-01 -1.769685e+00 62 47 61
-1.039568e-01 2.029851e-01 -1.766094e+00 63 49 66
-1.183192e-01 2.059487e-01 -1.774765e+00 121 108 118
-7.638782e-02 2.000123e-01 -1.752179e+00 112 96 101
-1.608540e-01 2.101839e-01 -1.787978e+00 120 108 119
-1.654180e-01 2.101267e-01 -1.789594e+00 60 49 62
-1.658035e-01 2.066911e-01 -1.784177e+00 60 49 62
-1.300331e-01 2.160314e-01 -1.788052e+00 124 104 106
-1.732961e-01 2.093668e-01 -1.788744e+00 58 46 60
-8.242688e-02 2.007871e-01 -1.751871e+00 113 99 105
-1.417196e-01 2.105511e-01 -1.781299e+00 122 108 110
-1.462666e-01 2.134326e-01 -1.787108e+00 63 47 58
-3.333225e-01 2.135846e-01 -1.832560e+00 56 40 52
-3.330786e-01 2.180677e-01 -1.838777e+00 56 40 52
-1.817235e-01 2.084409e-01 -1.785923e+00 66 54 61
-2.021609e-01 2.203989e-01 -1.807203e+00 46 36 49
-2.183191e-01 2.202964e-01 -1.810621e+00 50 38 48
-2.175290e-01 2.211698e-01 -1.811317e+00 50 38 48
-2.233041e-01 2.194929e-01 -1.811145e+00 51 37 44
-2.114127e-01 2.160532e-01 -1.801806e+00 29 18 35
-1.527665e-01 2.241852e-01 -1.799744e+00 112 97 101
-1.527665e-01 2.241852e-01 -1.799744e+00 112 97 101
-3.360041e-01 2.268081e-01 -1.845109e+00 112 99 116
-3.361970e-01 2.270794e-01 -1.845724e+00 112 99 116
-9.784812e-02 2.064910e-01 -1.756996e+00 59 46 55
-9.115705e-02 2.255339e-01 -1.784880e+00 59 46 55
-2.071040e-01 2.278991e-01 -1.814684e+00 108 96 106
-3.294237e-01 2.184130e-01 -1.826777e+00 61 47 62
-1.357440e-01 2.285750e-01 -1.793778e+00 65 50 57
-1.363762e-01 2.262184e-01 -1.790271e+00 65 50 57
-1.527019e-01 2.258730e-01 -1.792819e+00 65 52 64
-1.528555e-01 2.256348e-01 -1.792766e+00 65 52 64
-1.816907e-01 2.389379e-01 -1.820755e+00 62 48 61
-2.288570e-01 2.242147e-01 -1.807620e+00 69 52 60
-1.436436e-01 1.526745e-01 -1.679926e+00 116 101 100
-4.505284e-01 2.263295e-01 -1.853539e+00 103 84 82
9.483192e-03 2.242876e-01 -1.735749e+00 109 94 87
1.644463e-02 2.248475e-01 -1.725804e+00 110 93 69
-4.523605e-01 2.538720e-01 -1.872915e+00 197 182 142
-6.030332e-03 2.172776e-01 -1.704552e+00 87 72 50
-4.358046e-01 2.705127e-01 -1.876600e+00 199 186 145
-1.015499e-01 3.172662e-01 -1.832926e+00 37 30 46
-1.013577e-01 3.198814e-01 -1.836922e+00 37 30 46
-2.732828e-01 3.216027e-01 -1.877978e+00 129 118 125
-1.043589e-01 3.146081e-01 -1.824112e+00 85 76 86
-1.172863e-01 3.048505e-01 -1.812917e+00 100 88 96
1.777735e-01 -3.182861e-01 -1.989625e+00 199 177 138
2.659856e-01 -4.068896e-01 -1.676896e+00 162 118 71
2.659856e-01 -4.068896e-01 -1.676896e+00 162 118 71
2.291033e-01 -5.965626e-01 -2.062123e+00 114 93 59
-2.057188e-01 -1.346715e-01 -1.788856e+00 169 110 49
3.827812e-02 -4.712904e-01 -1.684213e+00 188 203 140
1.343641e-01 -4.409248e-01 -1.686306e+00 7 80 9
1.852319e-01 -4.206891e-01 -1.681688e+00 22 88 20
2.056105e-01 -4.152344e-01 -1.680457e+00 22 84 10
1.293899e-01 -4.397141e-01 -1.694947e+00 198 209 157
2.140475e-01 -4.322457e-01 -1.672816e+00 163 174 125
1.571826e-01 -4.280221e-01 -1.691344e+00 30 115 30
-2.426626e-01 -1.094581e-01 -1.781063e+00 149 89 23
-9.665405e-02 -8.451752e-02 -1.770385e+00 85 32 6
-1.329787e-01 -6.750115e-02 -1.758296e+00 146 85 27
1.733750e-01 -6.487025e-01 -1.674025e+00 98 90 64
1.314799e-01 -4.459160e-01 -1.678091e+00 26 96 17
3.148571e-01 -3.883919e-01 -1.672828e+00 124 116 90
-1.178216e-01 -2.918454e-01 -1.848026e+00 82 2 0
-3.049679e-01 -2.784792e-01 -1.866654e+00 98 47 1
8.885952e-02 -3.313764e-01 -1.892801e+00 212 193 156
6.406896e-01 -6.775691e-01 -1.565284e+00 186 177 131
4.496674e-01 -4.865821e-01 -1.546084e+00 92 90 69
-1.701238e-02 -4.915028e-01 -1.700109e+00 15 71 12
6.704565e-02 -4.871996e-01 -1.673795e+00 27 35 12
-2.269341e-01 -4.679308e-01 -1.888262e+00 101 43 0
-6.517473e-02 -3.638473e-01 -1.857196e+00 82 0 0
-3.619015e-02 -3.548399e-01 -1.867358e+00 127 38 23
-1.034381e-01 -3.397152e-01 -1.845105e+00 93 12 5
-1.412679e-01 -3.309591e-01 -1.840330e+00 130 40 6
-2.046537e-01 -2.608546e-01 -1.833515e+00 90 40 2
-3.709461e-01 -2.183634e-01 -1.897403e+00 114 63 2
-3.703659e-01 -2.178841e-01 -1.881737e+00 114 63 2
-2.131987e-01 -1.946008e-01 -1.806538e+00 92 41 3
-3.444525e-01 -1.888177e-01 -1.858538e+00 151 104 34
-1.197176e-01 -1.764976e-01 -1.795761e+00 84 24 2
-3.533778e-01 -1.720702e-01 -1.856945e+00 154 104 35
-2.159312e-01 -1.523851e-01 -1.793852e+00 94 31 0
-2.279571e-01 -1.488642e-01 -1.794337e+00 105 44 2
-3.857431e-01 -1.498401e-01 -1.869500e+00 123 71 0
-2.224874e-01 -1.435290e-01 -1.794957e+00 153 99 24
-2.201274e-01 -1.193974e-01 -1.782946e+00 81 21 0
-3.868364e-01 -1.142374e-01 -1.859753e+00 155 110 37
-5.344717e-02 -1.052374e-01 -1.787203e+00 96 32 0
-1.545463e-01 -9.660183e-02 -1.772208e+00 69 19 0
-3.917015e-01 -7.921942e-02 -1.845873e+00 162 111 46
1.693617e-01 -5.748099e-01 -1.545508e+00 30 28 19
2.078323e-01 -5.444664e-01 -1.584370e+00 109 108 95
9.542707e-02 -4.676521e-01 -1.674387e+00 36 108 36
9.788298e-02 -4.697257e-01 -1.677684e+00 36 108 36
1.268135e-01 -4.655551e-01 -1.673486e+00 112 138 91
1.464412e-01 -4.481010e-01 -1.680550e+00 39 84 22
3.046321e-01 -3.893850e-01 -1.676930e+00 119 101 64
-1.916996e-01 -3.912371e-01 -1.864572e+00 111 40 0
-1.986473e-01 -3.002129e-01 -1.845823e+00 112 46 0
-1.850317e-01 -2.407789e-01 -1.815086e+00 168 85 47
1.880286e-01 -2.929980e-01 -1.921595e+00 28 19 2
-3.683627e-01 -2.284338e-01 -1.899693e+00 152 108 35
-2.172780e-01 -1.970558e-01 -1.812669e+00 151 105 31
-2.167204e-01 -1.976594e-01 -1.814045e+00 151 105 31
-2.314165e-01 -1.949139e-01 -1.819107e+00 95 45 3
-2.267818e-01 -1.940402e-01 -1.817999e+00 150 102 31
-1.722339e-01 -1.656898e-01 -1.802398e+00 135 40 2
-2.856109e-01 -1.319162e-01 -1.803351e+00 159 109 41
-3.782196e-01 -1.108989e-01 -1.851643e+00 105 60 2
-3.936471e-01 -1.095966e-01 -1.867238e+00 152 110 38
-7.243256e-02 -7.793950e-02 -1.774698e+00 139 80 24
-4.062136e-01 -5.638713e-02 -1.852640e+00 178 96 58
1.476732e-01 -6.151322e-01 -1.668128e+00 51 44 22
1.774958e-01 -5.379043e-01 -1.604193e+00 85 86 72
6.395444e-01 -5.417642e-01 -1.548805e+00 42 37 18
6.444873e-01 -5.361368e-01 -1.549481e+00 54 48 16
1.128848e-01 -4.682154e-01 -1.673885e+00 144 170 124
1.262025e-01 -4.509647e-01 -1.686368e+00 210 226 161
1.560639e-01 -4.491360e-01 -1.674682e+00 170 198 143
1.117768e-01 -4.514242e-01 -1.688618e+00 27 104 19
1.807423e-01 -4.487337e-01 -1.677103e+00 21 65 6
1.563457e-01 -4.417887e-01 -1.679834e+00 171 193 134
3.268380e-01 -4.405656e-01 -1.647956e+00 64 62 50
1.963953e-01 -4.289568e-01 -1.675631e+00 45 84 26
2.002674e-01 -4.241888e-01 -1.672407e+00 51 65 10
2.170697e-01 -4.247884e-01 -1.674565e+00 54 72 12
2.165842e-01 -4.184633e-01 -1.675059e+00 143 104 55
3.046009e-01 -3.939618e-01 -1.673091e+00 124 101 69
3.427663e-01 -3.839859e-01 -1.704291e+00 21 17 6
-7.605717e-02 -3.649184e-01 -1.867355e+00 122 36 18
8.530072e-02 -3.580613e-01 -1.914452e+00 94 19 11
-1.700266e-01 -2.905558e-01 -1.830531e+00 167 69 42
-1.670893e-01 -2.917056e-01 -1.840566e+00 167 69 42
-2.326742e-01 -2.257713e-01 -1.825414e+00 148 97 18
-1.966677e-01 -1.899121e-01 -1.799339e+00 128 56 16
-2.296211e-01 -1.132603e-01 -1.775769e+00 152 99 34
1.788613e+00 1.099260e+00 -1.922687e+00 11 12 7
1.092163e-01 -3.648505e-01 -1.740390e+00 22 17 11
-3.914290e-01 -7.519345e-01 -1.894086e+00 25 79 30
-3.914290e-01 -7.519345e-01 -1.894086e+00 25 79 30
9.787535e-02 -4.366434e-01 -1.757334e+00 14 9 3
2.485611e-01 -4.514047e-01 -1.674044e+00 6 6 4
-1.148537e-01 -5.967448e-01 -1.761668e+00 20 82 17
-4.669388e-01 1.053728e-01 -1.906147e+00 183 168 127
-2.662942e-02 1.949465e-01 -1.722758e+00 98 83 77
-6.286535e-02 -5.832979e-01 -1.767571e+00 18 78 18
-4.298916e-01 -7.184650e-01 -1.850082e+00 180 167 127
-2.870129e-01 -7.093091e-01 -1.859589e+00 32 82 28
-2.870129e-01 -7.093091e-01 -1.859589e+00 32 82 28
-3.940363e-01 -6.968008e-01 -1.845191e+00 19 78 24
-2.404578e-01 -6.797377e-01 -1.805964e+00 160 143 99
-1.929542e-01 -6.738076e-01 -1.822225e+00 170 153 108
6.532807e-01 -5.155890e-01 -1.565505e+00 178 164 125
6.281485e-02 -4.506977e-01 -1.884816e+00 23 3 0
-1.469741e-01 -6.472240e-01 -1.803731e+00 175 157 110
-9.988076e-02 -6.239719e-01 -1.789539e+00 179 159 110
-1.936397e-01 -6.040875e-01 -1.797951e+00 38 91 40
-1.756723e-01 -6.010474e-01 -1.803805e+00 29 83 27
-1.312041e-01 -5.735006e-01 -1.777308e+00 25 77 21
9.973893e-03 -5.114131e-01 -1.746522e+00 18 67 12
4.080614e-02 -4.237322e-01 -1.760218e+00 14 9 0
-2.361997e-01 -1.945723e-01 -1.814366e+00 101 58 19
-1.499161e-01 -6.094438e-01 -1.786139e+00 135 145 97
-1.045310e-01 -5.843297e-01 -1.765998e+00 122 138 87
-7.663949e-03 -5.774019e-01 -1.760452e+00 174 156 107
-3.672048e-02 -5.702519e-01 -1.758489e+00 166 177 120
1.396546e-01 -4.566611e-01 -1.700118e+00 195 204 149
-9.119440e-02 -3.636456e-01 -1.836889e+00 63 13 6
-2.630277e-01 -2.978189e-01 -1.833123e+00 96 46 10
-1.252730e-01 -1.644311e-01 -1.773953e+00 124 71 64
-7.441319e-02 -1.544027e-01 -1.762019e+00 63 20 3
-1.368802e-01 -9.225126e-02 -1.769808e+00 82 53 32
-1.368802e-01 -9.225126e-02 -1.769808e+00 82 53 32
-3.777304e-01 -9.152791e-02 -1.846858e+00 83 35 0
-9.707680e-02 -8.566102e-02 -1.763129e+00 60 24 9
-1.685331e-01 -7.851079e-02 -1.766740e+00 91 43 23
-3.644756e-01 -5.792128e-02 -1.830609e+00 143 68 36
1.603752e+00 6.906480e-01 -1.800270e+00 15 15 2
2.738912e-01 -7.656665e-01 -1.688736e+00 22 19 1
1.715456e-01 -6.680535e-01 -1.617221e+00 90 84 56
2.734775e-01 -6.275640e-01 -1.615122e+00 71 67 44
3.512699e-01 -5.953603e-01 -1.613707e+00 59 57 44
4.318181e-01 -5.418644e-01 -1.594205e+00 74 73 53
4.252910e-01 -5.401710e-01 -1.590010e+00 74 73 53
6.066903e-02 -5.331847e-01 -1.732004e+00 34 48 13
-2.809918e-02 -5.392244e-01 -1.759604e+00 180 200 128
6.230326e-01 -4.902635e-01 -1.576781e+00 187 174 130
5.258188e-01 -3.889558e-01 -1.624788e+00 187 174 131
-3.354142e-01 -4.144656e-01 -1.892727e+00 95 42 5
-3.354142e-01 -4.144656e-01 -1.892727e+00 95 42 5
-8.208279e-02 -3.565832e-01 -1.807411e+00 59 1 2
-8.917578e-02 -3.528381e-01 -1.806755e+00 119 32 13
-5.788227e-02 -3.356147e-01 -1.801302e+00 63 2 2
-8.713559e-02 -2.944093e-01 -1.821415e+00 54 7 4
-8.733549e-02 -2.943899e-01 -1.819535e+00 54 7 4
-1.235170e-01 -2.927804e-01 -1.800967e+00 120 32 14
4.237394e-01 -2.535128e-01 -1.727849e+00 18 12 1
-2.989128e-01 -2.145641e-01 -1.842759e+00 134 82 17
-3.551015e-01 -2.150112e-01 -1.873749e+00 142 97 29
-3.468091e-01 -2.043464e-01 -1.860728e+00 134 85 26
-3.212935e-01 -1.944523e-01 -1.851779e+00 138 90 22
-3.210422e-01 -1.948556e-01 -1.846194e+00 138 90 22
-3.190648e-02 -1.544576e-01 -1.797189e+00 65 23 7
-4.958403e-02 -1.218299e-01 -1.771737e+00 86 40 16
-1.487512e-01 -1.281031e-01 -1.779518e+00 116 72 44
-1.487512e-01 -1.281031e-01 -1.779518e+00 116 72 44
-4.328612e-01 -9.632518e-02 -1.902857e+00 127 87 41
-2.609949e-02 -8.035612e-02 -1.759080e+00 80 30 0
-3.315131e-01 -9.314914e-02 -1.807850e+00 125 34 7
-3.733194e-01 -7.850263e-02 -1.840051e+00 127 37 10
3.213692e-02 1.039745e-01 -1.746690e+00 199 183 142
-1.170296e-01 1.993010e-01 -1.774405e+00 54 42 56
-9.660634e-02 2.008118e-01 -1.766046e+00 55 39 54
-2.293326e-01 2.064457e-01 -1.811463e+00 52 41 58
-1.595106e-01 2.189762e-01 -1.797459e+00 97 82 88
-1.590870e-01 2.207376e-01 -1.800940e+00 97 82 88
-4.173241e-01 -7.141672e-01 -1.845105e+00 38 92 5
-3.595451e-01 -6.990454e-01 -1.856872e+00 173 200 144
-2.330239e-01 -3.374957e-01 -1.175168e+00 42 52 4
-1.662967e-01 -6.375520e-01 -1.803795e+00 28 71 2
6.752625e-01 -5.657238e-01 -1.556858e+00 175 166 112
-2.386125e-01 -3.129414e-01 -1.130160e+00 168 194 134
6.650257e-01 -5.551507e-01 -1.549726e+00 177 169 121
4.718121e-01 -5.092286e-01 -1.575917e+00 73 72 50
4.730497e-01 -5.096363e-01 -1.576723e+00 73 72 50
4.732528e-02 -4.562852e-01 -1.831055e+00 139 107 77
-3.300505e-01 -4.469846e-01 -1.904246e+00 100 50 15
-3.395147e-01 -4.430531e-01 -1.909217e+00 93 40 6
-3.395147e-01 -4.430531e-01 -1.909217e+00 93 40 6
-2.535335e-02 -4.253073e-01 -1.825199e+00 65 2 2
-3.352324e-01 -4.291666e-01 -1.900340e+00 95 41 3
-3.352324e-01 -4.291666e-01 -1.900340e+00 95 41 3
-2.499354e-01 -4.162175e-01 -1.859522e+00 89 24 0
-3.473497e-01 -4.219054e-01 -1.901793e+00 87 35 0
-2.299367e-01 -4.119672e-01 -1.851680e+00 133 69 28
-3.592330e-01 -4.044399e-01 -1.906077e+00 96 46 4
-3.592330e-01 -4.044399e-01 -1.906077e+00 96 46 4
-1.985041e-01 -3.926294e-01 -1.840380e+00 136 73 20
-2.030821e-01 -3.647046e-01 -1.828422e+00 133 71 18
-2.016416e-01 -3.652212e-01 -1.838386e+00 133 71 18
-1.007619e-01 -3.346754e-01 -1.815873e+00 63 0 3
-2.362343e-03 -3.093047e-01 -1.809414e+00 112 36 24
-2.362343e-03 -3.093047e-01 -1.809414e+00 112 36 24
-2.014513e-01 -3.122883e-01 -1.827020e+00 95 28 1
-2.455312e-01 -3.135217e-01 -1.836639e+00 82 31 0
-2.452622e-01 -3.140564e-01 -1.839007e+00 82 31 0
-1.275349e-01 -2.978139e-01 -1.805950e+00 70 1 0
-7.258002e-02 -2.377414e-01 -1.776219e+00 142 56 36
-6.783441e-02 -2.370357e-01 -1.792728e+00 142 56 36
-2.184236e-02 -2.336621e-01 -1.784650e+00 139 50 32
-2.181882e-02 -2.336494e-01 -1.784687e+00 139 50 32
-3.492724e-01 -2.177962e-01 -1.859452e+00 139 93 29
-3.821966e-01 -2.122458e-01 -1.889531e+00 90 45 1
-3.821966e-01 -2.122458e-01 -1.889531e+00 90 45 1
-3.288212e-01 -2.090127e-01 -1.852104e+00 135 86 27
-3.436302e-01 -1.895207e-01 -1.849973e+00 140 95 27
-9.559715e-02 -1.659648e-01 -1.790151e+00 122 66 13
-3.639606e-01 -1.685166e-01 -1.861974e+00 143 95 30
-3.758284e-01 -1.650690e-01 -1.857486e+00 134 90 28
-3.724568e-01 -1.419962e-01 -1.858787e+00 100 58 1
-1.010294e-01 -1.270306e-01 -1.770277e+00 128 66 21
-1.566076e-01 -1.131903e-01 -1.778843e+00 68 17 5
-1.570873e-01 -1.141438e-01 -1.776277e+00 68 17 5
-3.927915e-01 -1.103938e-01 -1.862856e+00 139 100 33
-3.432213e-01 -8.711380e-02 -1.829864e+00 127 37 8
-1.074224e-01 -8.120658e-02 -1.764434e+00 128 77 28
-1.074224e-01 -8.120658e-02 -1.764434e+00 128 77 28
-3.494300e-01 -8.464434e-02 -1.833982e+00 124 36 6
-3.568846e-01 -8.519588e-02 -1.827499e+00 126 39 8
-1.595334e-01 -7.021938e-02 -1.760675e+00 146 88 22
-1.591792e-01 -7.009070e-02 -1.760984e+00 146 88 22
-4.522526e-01 -5.634172e-03 -1.937476e+00 132 93 47
-4.192227e-03 -2.207690e-02 -1.743893e+00 156 104 54
-4.192227e-03 -2.207690e-02 -1.743893e+00 156 104 54
-3.737601e-01 2.277446e-01 -1.852324e+00 56 44 52
1.469975e+00 6.685221e-01 -1.779143e+00 110 98 76
3.622778e-01 -8.085888e-01 -1.656866e+00 16 13 0
3.472202e-01 -7.856594e-01 -1.659942e+00 62 62 50
2.667031e-01 -7.609268e-01 -1.677210e+00 19 16 2
3.612282e-01 -7.151506e-01 -1.622402e+00 85 85 75
3.739189e-01 -7.237504e-01 -1.633315e+00 85 85 75
6.679286e-01 -7.127997e-01 -1.585827e+00 165 157 111
-4.324107e-01 -7.462614e-01 -1.884870e+00 160 149 104
-3.564912e-01 -7.382848e-01 -1.865816e+00 133 150 95
-3.564912e-01 -7.382848e-01 -1.865816e+00 133 150 95
-3.370860e-01 -7.233051e-01 -1.840078e+00 132 145 95
-4.279939e-01 -7.371038e-01 -1.880585e+00 205 217 154
6.655596e-01 -6.746943e-01 -1.583321e+00 70 68 47
-3.825402e-01 -7.140482e-01 -1.864100e+00 59 141 55
-2.781191e-01 -7.072862e-01 -1.845462e+00 49 68 9
2.898541e-01 -6.372589e-01 -1.632958e+00 72 67 48
2.504880e-01 -6.236733e-01 -1.646963e+00 51 51 43
2.420173e-01 -6.181390e-01 -1.637700e+00 51 51 43
-1.188289e-01 -6.204554e-01 -1.790454e+00 143 156 105
-2.431743e-01 -3.130021e-01 -1.129328e+00 190 177 146
2.565315e-01 -5.724146e-01 -1.637136e+00 91 91 79
-1.431992e-01 -5.980376e-01 -1.793990e+00 132 204 120
-1.436156e-01 -5.973889e-01 -1.792359e+00 132 204 120
-6.517620e-02 -5.618079e-01 -1.766950e+00 19 36 1
6.527440e-01 -5.216745e-01 -1.557806e+00 186 171 137
6.407591e-01 -5.171451e-01 -1.554568e+00 187 171 138
2.383443e-02 -5.538730e-01 -1.746486e+00 43 52 1
-5.372470e-03 -5.512971e-01 -1.750553e+00 24 70 20
1.469776e-01 -5.220702e-01 -1.731691e+00 19 14 3
2.832837e-02 -5.172547e-01 -1.740093e+00 34 47 4
-1.286367e-02 -5.145965e-01 -1.757796e+00 159 152 116
6.143093e-01 -4.832229e-01 -1.580196e+00 53 44 20
5.970285e-02 -4.862858e-01 -1.727916e+00 8 50 0
5.894165e-01 -4.595977e-01 -1.588951e+00 45 34 11
5.203701e-01 -4.437792e-01 -1.557433e+00 63 56 46
1.249087e-01 -4.663487e-01 -1.708361e+00 25 77 2
-1.852717e-01 -4.814080e-01 -1.850721e+00 152 83 44
-2.099085e-01 -4.784759e-01 -1.847526e+00 162 101 57
7.605348e-02 -4.733292e-01 -1.820973e+00 108 88 59
1.486053e-01 -4.450548e-01 -1.699116e+00 23 63 8
4.963830e-01 -4.180610e-01 -1.563717e+00 47 37 15
-8.681538e-02 -4.582048e-01 -1.835610e+00 71 3 1
2.103662e-01 -4.277889e-01 -1.683346e+00 28 40 2
-2.892138e-01 -4.570775e-01 -1.886495e+00 78 15 1
5.602365e-01 -4.152429e-01 -1.625756e+00 190 178 137
5.506093e-01 -4.142420e-01 -1.623892e+00 45 36 15
1.790697e-01 -4.185249e-01 -1.696461e+00 17 16 0
-3.154274e-01 -4.495216e-01 -1.895713e+00 82 28 0
-2.156602e-02 -4.318199e-01 -1.828053e+00 113 29 18
-2.103801e-01 -4.326773e-01 -1.848901e+00 138 76 29
-2.474835e-01 -4.344342e-01 -1.870188e+00 82 24 3
-3.515459e-01 -4.307056e-01 -1.912169e+00 139 86 32
-3.515459e-01 -4.307056e-01 -1.912169e+00 139 86 32
-3.693819e-01 -4.336039e-01 -1.930782e+00 160 97 51
-3.690128e-01 -4.329212e-01 -1.925710e+00 160 97 51
-3.210419e-01 -4.202251e-01 -1.890559e+00 82 19 1
-2.060753e-01 -4.114377e-01 -1.844168e+00 134 68 19
-1.943334e-01 -4.011443e-01 -1.838435e+00 101 32 4
-3.364334e-01 -4.090268e-01 -1.895880e+00 140 78 29
-2.076859e-01 -3.962840e-01 -1.839219e+00 134 71 23
-2.858390e-01 -3.994213e-01 -1.870804e+00 82 17 1
-3.667489e-01 -3.984794e-01 -1.909675e+00 95 40 0
-3.238185e-01 -3.986339e-01 -1.925432e+00 80 20 0
-3.100688e-01 -3.898773e-01 -1.883631e+00 139 77 32
-2.565152e-01 -3.849389e-01 -1.855236e+00 92 25 0
-2.287588e-01 -3.792845e-01 -1.842973e+00 61 3 0
-2.567095e-01 -3.755325e-01 -1.851980e+00 86 15 2
-2.567679e-01 -3.755331e-01 -1.851533e+00 86 15 2
-2.091974e-01 -3.692450e-01 -1.855552e+00 129 68 21
-2.072048e-01 -3.624285e-01 -1.831391e+00 65 5 0
-2.585374e-01 -3.616693e-01 -1.853805e+00 87 21 2
-2.584901e-01 -3.615409e-01 -1.854290e+00 87 21 2
-1.343911e-01 -3.536292e-01 -1.808608e+00 75 4 4
-3.251827e-01 -3.621477e-01 -1.880599e+00 86 21 0
-3.408391e-01 -3.575874e-01 -1.889061e+00 81 25 9
-2.194180e-01 -3.435962e-01 -1.832868e+00 141 81 35
-1.246793e-01 -3.394245e-01 -1.811059e+00 70 4 2
-1.246793e-01 -3.394245e-01 -1.811059e+00 70 4 2
-3.668833e-01 -3.463383e-01 -1.902724e+00 91 38 0
-2.614158e-01 -3.401918e-01 -1.846870e+00 89 18 2
-2.613057e-01 -3.403063e-01 -1.847917e+00 89 18 2
-3.684666e-01 -3.383512e-01 -1.903858e+00 143 91 26
-1.268618e-02 -3.260249e-01 -1.795815e+00 119 31 18
-1.783782e-02 -3.240986e-01 -1.812724e+00 59 0 0
6.644638e-02 -3.230198e-01 -1.821066e+00 22 10 4
-7.847832e-02 -3.070814e-01 -1.799084e+00 75 5 6
4.374449e-01 -2.874732e-01 -1.695876e+00 32 24 7
-8.245240e-02 -2.931360e-01 -1.791785e+00 63 1 1
-1.060553e-01 -2.834715e-01 -1.807648e+00 60 3 6
4.632045e-01 -2.631964e-01 -1.739036e+00 198 186 138
-3.815795e-03 -2.619086e-01 -1.833180e+00 113 34 24
4.485363e-01 -2.461985e-01 -1.756067e+00 192 177 146
-3.354236e-01 -2.714484e-01 -1.878050e+00 152 96 41
-3.367543e-01 -2.715704e-01 -1.894414e+00 152 96 41
-1.429336e-02 -2.570115e-01 -1.766166e+00 116 31 23
-3.861831e-01 -2.669138e-01 -1.895313e+00 164 106 55
-3.861831e-01 -2.669138e-01 -1.895313e+00 164 106 55
-2.284996e-01 -2.533215e-01 -1.820135e+00 83 27 4
-2.080629e-01 -2.469055e-01 -1.815749e+00 60 1 0
-3.872413e-01 -2.496856e-01 -1.886926e+00 165 107 55
-3.872413e-01 -2.496856e-01 -1.886926e+00 165 107 55
-2.285459e-01 -2.439935e-01 -1.817180e+00 77 16 1
-2.278989e-01 -2.433426e-01 -1.826655e+00 77 16 1
-2.140419e-01 -2.418221e-01 -1.821367e+00 148 96 48
-2.091133e-01 -2.312916e-01 -1.812527e+00 61 5 0
-2.673378e-01 -2.312097e-01 -1.834722e+00 134 87 25
-1.000108e-01 -2.203768e-01 -1.785007e+00 114 20 0
-2.229176e-01 -2.083970e-01 -1.804849e+00 91 36 2
-2.856402e-01 -2.077075e-01 -1.831545e+00 96 39 0
-1.291848e-02 -1.956954e-01 -1.774667e+00 135 48 29
-2.364891e-01 -2.027935e-01 -1.808555e+00 136 88 21
-4.234809e-01 -1.957193e-01 -1.914632e+00 134 95 51
-3.131731e-01 -1.950075e-01 -1.843505e+00 138 91 26
-3.042072e-01 -1.899889e-01 -1.836222e+00 81 37 0
-1.336799e-01 -1.803194e-01 -1.783006e+00 56 7 0
-3.322735e-01 -1.785807e-01 -1.847726e+00 136 90 25
-2.343336e-01 -1.612671e-01 -1.803339e+00 95 34 5
-3.854971e-01 -1.485607e-01 -1.865834e+00 109 61 2
-1.307515e-01 -1.393513e-01 -1.776335e+00 68 21 3
-2.536538e-01 -1.344507e-01 -1.803456e+00 67 16 2
-2.536319e-01 -1.347899e-01 -1.804546e+00 67 16 2
-4.319221e-02 -1.176302e-01 -1.763910e+00 70 8 0
-4.342286e-02 -1.175259e-01 -1.763241e+00 70 8 0
-1.608710e-01 -1.207694e-01 -1.778197e+00 133 77 18
-2.077451e-01 -1.043006e-01 -1.788426e+00 146 76 32
-1.800222e-01 -9.716290e-02 -1.782066e+00 119 37 7
-4.177040e-01 -9.923358e-02 -1.860845e+00 111 51 10
-2.784820e-01 -1.005148e-01 -1.795718e+00 124 33 3
-1.169496e-01 -9.301646e-02 -1.766189e+00 78 32 16
-1.284899e-01 -8.882372e-02 -1.769373e+00 58 17 0
-3.487557e-01 -9.073604e-02 -1.834602e+00 154 106 49
-1.809841e-01 -8.660600e-02 -1.780865e+00 120 34 4
-1.679400e-01 -7.252069e-02 -1.776170e+00 70 15 2
-3.619369e-01 -5.619459e-02 -1.833905e+00 154 76 43
-4.581733e-03 -3.559296e-02 -1.742871e+00 94 44 0
-6.694838e-03 -3.722036e-02 -1.738019e+00 94 44 0
-1.333271e-02 -2.863176e-02 -1.737117e+00 157 105 47
-3.124664e-01 4.227549e-02 -1.812904e+00 57 56 62
-1.172969e-01 1.826594e-01 -1.757420e+00 106 92 90
-8.838435e-02 2.053632e-01 -1.768946e+00 109 94 92
-8.902905e-02 2.031429e-01 -1.765221e+00 109 94 92
-3.131095e-01 2.206356e-01 -1.842212e+00 96 83 92
-3.331313e-01 2.272383e-01 -1.853062e+00 48 37 43
-1.009941e-01 2.176920e-01 -1.773894e+00 56 41 46
-1.009941e-01 2.176920e-01 -1.773894e+00 56 41 46
-3.543749e-01 2.318169e-01 -1.851860e+00 78 72 87
-3.543749e-01 2.318169e-01 -1.851860e+00 78 72 87
-4.531368e-01 2.385882e-01 -1.880919e+00 47 33 33
-4.506749e-01 2.314289e-01 -1.869287e+00 47 33 33
-1.114911e-01 2.649603e-01 -1.768008e+00 34 26 39
1.363894e+00 4.970876e-01 -1.626284e+00 126 114 93
2.704008e-01 -7.694732e-01 -1.663900e+00 47 41 17
2.887449e-01 -7.790273e-01 -1.682379e+00 81 75 58
-4.077284e-01 -7.623258e-01 -1.878360e+00 71 85 47
-4.055708e-01 -7.440941e-01 -1.851277e+00 166 175 132
-4.133145e-01 -7.403735e-01 -1.845924e+00 101 97 56
-4.219570e-01 -7.493755e-01 -1.873929e+00 89 90 41
-4.242868e-01 -7.473345e-01 -1.878827e+00 151 165 98
-3.603220e-01 -7.398817e-01 -1.864115e+00 65 80 42
-3.784619e-01 -7.383457e-01 -1.865627e+00 46 97 46
-3.902435e-01 -7.362152e-01 -1.871583e+00 41 95 46
-3.287215e-01 -7.271468e-01 -1.847488e+00 103 107 56
-3.111336e-01 -7.271783e-01 -1.854252e+00 118 117 66
-4.106626e-01 -7.211415e-01 -1.876989e+00 38 73 15
-3.863175e-01 -7.021315e-01 -1.841368e+00 47 93 2
2.743083e-01 -6.437225e-01 -1.631163e+00 33 28 8
-3.521717e-01 -7.001435e-01 -1.853029e+00 176 195 146
-3.525299e-01 -6.888189e-01 -1.832080e+00 75 109 61
-2.809968e-01 -6.922343e-01 -1.836291e+00 45 83 43
-2.671413e-01 -6.924646e-01 -1.837730e+00 158 171 126
2.083390e-01 -6.770536e-01 -1.727940e+00 25 17 2
-2.442895e-01 -3.149738e-01 -1.126722e+00 25 67 0
-2.927889e-01 -6.729501e-01 -1.819339e+00 176 195 153
-2.672900e-01 -6.822882e-01 -1.832204e+00 19 64 0
-3.085945e-01 -6.799993e-01 -1.843084e+00 57 93 48
-3.272907e-01 -6.706032e-01 -1.847355e+00 195 208 178
-2.322814e-01 -6.628882e-01 -1.822108e+00 43 64 14
1.894238e-01 -6.500120e-01 -1.727515e+00 36 27 10
-2.084795e-01 -6.280539e-01 -1.812102e+00 187 206 137
-2.084795e-01 -6.280539e-01 -1.812102e+00 187 206 137
3.647332e-01 -5.607488e-01 -1.585641e+00 54 52 41
-1.435765e-01 -6.153633e-01 -1.793031e+00 57 68 30
-1.310402e-01 -6.124715e-01 -1.790573e+00 11 51 0
-1.459575e-01 -6.122091e-01 -1.793804e+00 180 191 133
-9.230985e-02 -6.006584e-01 -1.779352e+00 45 84 37
2.300531e-01 -5.703589e-01 -1.663268e+00 69 69 59
1.540022e-01 -5.964544e-01 -1.750105e+00 35 28 10
-1.442155e-01 -5.918917e-01 -1.787897e+00 24 106 14
-1.425426e-01 -5.817963e-01 -1.796120e+00 75 93 55
-1.461208e-01 -5.795724e-01 -1.795759e+00 189 182 146
6.486559e-01 -5.304860e-01 -1.556138e+00 45 38 22
-4.957729e-02 -5.698509e-01 -1.765254e+00 50 66 23
-1.349451e-01 -5.751498e-01 -1.792283e+00 180 175 134
-6.049066e-02 -5.695231e-01 -1.768740e+00 43 76 30
-2.338211e-01 -3.059276e-01 -1.116585e+00 149 172 115
-3.404084e-02 -5.538323e-01 -1.760922e+00 115 189 112
-5.637230e-02 -5.524169e-01 -1.762218e+00 49 134 45
-1.363338e-02 -5.474434e-01 -1.755913e+00 46 79 24
1.249553e-01 -5.576169e-01 -1.771595e+00 94 83 59
-2.479457e-02 -5.429845e-01 -1.757868e+00 41 81 30
-8.420207e-04 -5.383850e-01 -1.747748e+00 25 73 1
7.849678e-02 -5.401337e-01 -1.745957e+00 99 93 53
-4.972782e-02 -5.352362e-01 -1.765480e+00 74 90 48
6.740146e-02 -5.306416e-01 -1.735831e+00 128 141 103
-1.538998e-02 -5.326857e-01 -1.754547e+00 28 91 5
2.275741e-01 -5.123442e-01 -1.676626e+00 44 43 38
6.102533e-02 -5.216664e-01 -1.731678e+00 21 65 0
-8.535715e-03 -5.160857e-01 -1.756456e+00 54 82 41
5.233013e-02 -5.072072e-01 -1.733120e+00 125 199 121
2.582039e-01 -4.908330e-01 -1.664178e+00 76 74 61
5.399607e-01 -4.661868e-01 -1.551967e+00 52 49 42
5.136217e-02 -4.906959e-01 -1.718219e+00 34 92 8
1.436745e-01 -4.873939e-01 -1.709958e+00 31 49 25
4.026679e-02 -4.902326e-01 -1.739489e+00 154 165 117
1.111876e-01 -4.686410e-01 -1.703972e+00 204 214 162
1.144042e-01 -4.639737e-01 -1.708017e+00 32 75 2
1.681361e-01 -4.589217e-01 -1.690513e+00 50 95 40
2.173014e-01 -4.602866e-01 -1.690683e+00 42 54 39
1.241424e-01 -4.606538e-01 -1.706260e+00 94 171 88
1.254101e-01 -4.613231e-01 -1.708172e+00 94 171 88
