ply
format ascii 1.0
element face 0
property list uchar int vertex_indices
element vertex 944
property float x
property float y
property float z
property uchar diffuse_red
property uchar diffuse_green
property uchar diffuse_blue
end_header
-8.607298e-01 -1.690455e+00 -2.112675e+00 46 97 46
-9.027159e-01 -1.696290e+00 -2.136822e+00 41 95 46
-7.035465e-01 -1.660317e+00 -2.096879e+00 103 107 56
-6.538409e-01 -1.669860e+00 -2.128207e+00 118 117 66
-9.665030e-01 -1.650261e+00 -2.151869e+00 38 73 15
-8.766380e-01 -1.577015e+00 -2.072332e+00 47 93 2
1.261671e+00 -1.378781e+00 -1.806257e+00 33 28 8
-7.748074e-01 -1.573946e+00 -2.114108e+00 176 195 146
-7.687519e-01 -1.534845e+00 -2.067684e+00 75 109 61
-5.514365e-01 -1.549997e+00 -2.102353e+00 45 83 43
-5.102186e-01 -1.554247e+00 -2.113767e+00 158 171 126
1.011517e+00 -1.535381e+00 -2.050481e+00 25 17 2
-1.023966e-01 2.362921e-02 -2.460481e-01 25 67 0
-5.797163e-01 -1.484532e+00 -2.064466e+00 176 195 153
-5.083672e-01 -1.525302e+00 -2.109497e+00 19 64 0
-6.374923e-01 -1.512046e+00 -2.115911e+00 57 93 48
-6.951430e-01 -1.482185e+00 -2.123810e+00 195 208 178
-3.959122e-01 -1.458712e+00 -2.100380e+00 43 64 14
9.501676e-01 -1.444233e+00 -2.051681e+00 36 27 10
-3.178858e-01 -1.350267e+00 -2.102603e+00 187 206 137
-3.178858e-01 -1.350267e+00 -2.102603e+00 187 206 137
1.564241e+00 -1.105055e+00 -1.760472e+00 54 52 41
-1.115107e-01 -1.310224e+00 -2.085359e+00 57 68 30
-7.209569e-02 -1.301133e+00 -2.084909e+00 11 51 0
-1.190237e-01 -1.300638e+00 -2.088218e+00 180 191 133
5.135438e-02 -1.265199e+00 -2.078682e+00 45 84 37
1.104040e+00 -1.159889e+00 -1.919915e+00 69 69 59
8.287409e-01 -1.286578e+00 -2.133559e+00 35 28 10
-1.104196e-01 -1.235061e+00 -2.082838e+00 24 106 14
-1.082210e-01 -1.216245e+00 -2.122929e+00 75 93 55
-1.193766e-01 -1.202285e+00 -2.112635e+00 189 182 146
2.502359e+00 -1.050233e+00 -1.847964e+00 45 38 22
1.906385e-01 -1.174943e+00 -2.083409e+00 50 66 23
-8.368664e-02 -1.188343e+00 -2.110257e+00 180 175 134
1.549360e-01 -1.172163e+00 -2.085367e+00 43 76 30
-6.596141e-02 5.539252e-02 -2.266950e-01 149 172 115
2.399262e-01 -1.123609e+00 -2.084542e+00 115 189 112
1.714781e-01 -1.118053e+00 -2.080144e+00 49 134 45
3.036099e-01 -1.100787e+00 -2.078695e+00 46 79 24
7.270007e-01 -1.172142e+00 -2.202090e+00 94 83 59
2.685970e-01 -1.086414e+00 -2.081172e+00 41 81 30
3.466792e-01 -1.070106e+00 -2.066033e+00 25 73 1
5.925328e-01 -1.090098e+00 -2.104313e+00 99 93 53
1.891286e-01 -1.063632e+00 -2.095898e+00 74 90 48
5.635986e-01 -1.053592e+00 -2.074608e+00 128 141 103
2.990712e-01 -1.054498e+00 -2.081993e+00 28 91 5
1.086606e+00 -9.857812e-01 -1.988477e+00 44 43 38
5.457228e-01 -1.022028e+00 -2.063408e+00 21 65 0
3.209422e-01 -1.009880e+00 -2.106391e+00 54 82 41
5.185320e-01 -9.774245e-01 -2.071806e+00 125 199 121
1.189460e+00 -9.183232e-01 -1.981617e+00 76 74 61
2.148421e+00 -8.251668e-01 -1.815210e+00 52 49 42
5.235112e-01 -9.190524e-01 -2.038951e+00 34 92 8
8.128034e-01 -9.188174e-01 -2.063730e+00 31 49 25
4.787877e-01 -9.278450e-01 -2.094860e+00 154 165 117
7.147311e-01 -8.519892e-01 -2.039437e+00 204 214 162
7.228276e-01 -8.406966e-01 -2.055426e+00 32 75 2
8.934487e-01 -8.191751e-01 -2.027138e+00 50 95 40
1.046639e+00 -8.319948e-01 -2.053719e+00 42 54 39
7.536581e-01 -8.309109e-01 -2.056906e+00 94 171 88
7.555066e-01 -8.330368e-01 -2.060641e+00 94 171 88
7.549577e-01 -8.325294e-01 -2.059454e+00 94 171 88
8.142345e-01 -8.139701e-01 -2.055850e+00 156 180 111
1.365182e+00 -7.784575e-01 -1.986531e+00 69 66 59
8.666497e-01 -7.992210e-01 -2.045488e+00 171 191 140
1.096850e+00 -7.984570e-01 -2.059300e+00 21 27 10
8.708483e-01 -7.832104e-01 -2.047600e+00 192 209 142
8.729160e-01 -7.855575e-01 -2.051248e+00 192 209 142
1.114664e+00 -7.805150e-01 -2.045110e+00 83 74 60
8.544879e-01 -7.778118e-01 -2.040407e+00 84 100 29
8.999505e-01 -7.804466e-01 -2.049241e+00 35 80 11
-5.374735e-01 -9.152852e-01 -2.333029e+00 158 104 61
8.460870e-01 -7.811195e-01 -2.059853e+00 183 209 134
7.609430e-01 -7.754390e-01 -2.060446e+00 186 202 149
1.065563e+00 -7.644492e-01 -2.040138e+00 33 64 15
1.065563e+00 -7.644492e-01 -2.040138e+00 33 64 15
8.492944e-01 -7.763661e-01 -2.075112e+00 9 52 0
6.389407e-03 -8.619287e-01 -2.314765e+00 77 3 0
-4.488953e-01 -8.865378e-01 -2.373367e+00 149 90 40
-4.721516e-01 -8.869604e-01 -2.379129e+00 141 75 33
9.003784e-02 -8.530466e-01 -2.327260e+00 125 49 38
1.060108e+00 -7.168459e-01 -2.035703e+00 49 67 10
-5.759774e-01 -8.711328e-01 -2.380510e+00 150 79 27
9.888603e-01 -7.094986e-01 -2.053107e+00 183 212 138
1.673514e-01 -8.536221e-01 -2.380818e+00 74 1 1
1.543580e+00 -6.738158e-01 -1.988369e+00 62 59 50
1.033051e+00 -7.069951e-01 -2.061648e+00 47 77 14
-3.966645e-01 -8.368587e-01 -2.416376e+00 133 70 30
-3.767013e-01 -8.140327e-01 -2.365136e+00 74 9 1
1.773380e+00 -6.605430e-01 -2.032944e+00 82 79 70
1.774742e+00 -6.612158e-01 -2.035361e+00 82 79 70
4.863993e-01 -8.304146e-01 -2.443788e+00 104 71 39
2.271179e-01 -7.738535e-01 -2.318166e+00 79 1 0
-6.685361e-01 -8.116000e-01 -2.415545e+00 86 27 0
2.048726e+00 -6.427840e-01 -2.053809e+00 73 69 33
1.610481e+00 -6.113888e-01 -1.973759e+00 69 66 57
-4.288346e-01 -7.854739e-01 -2.367299e+00 76 15 1
-9.842532e-01 -8.870408e-01 -2.616881e+00 106 55 14
-4.777354e-01 -7.836679e-01 -2.375990e+00 92 22 1
-4.793951e-01 -7.882676e-01 -2.386941e+00 92 22 1
1.613970e-01 -7.379938e-01 -2.353098e+00 76 2 3
-3.467302e-01 -7.231557e-01 -2.311676e+00 94 30 1
-4.445829e-01 -7.512027e-01 -2.381573e+00 142 86 39
1.486621e-01 -7.342364e-01 -2.357548e+00 115 32 19
1.486621e-01 -7.342364e-01 -2.357548e+00 115 32 19
1.717769e+00 -5.905923e-01 -2.035008e+00 69 66 57
-3.945198e-01 -7.179357e-01 -2.355986e+00 127 67 34
-3.938731e-01 -7.131421e-01 -2.344766e+00 127 67 34
1.327959e+00 -5.901432e-01 -2.086846e+00 75 72 54
-4.282783e-01 -7.084685e-01 -2.361078e+00 77 19 3
-4.545415e-01 -6.966133e-01 -2.371159e+00 87 19 0
-3.910545e-01 -6.831985e-01 -2.346356e+00 128 58 22
-4.427139e-01 -6.611750e-01 -2.363666e+00 76 13 1
-4.749424e-01 -6.627313e-01 -2.373197e+00 90 21 0
-4.570849e-01 -6.417455e-01 -2.342023e+00 142 83 39
-3.117840e-01 -6.091307e-01 -2.326658e+00 71 5 3
-4.465195e-01 -6.155554e-01 -2.364625e+00 87 23 2
-4.456229e-01 -6.138026e-01 -2.360627e+00 87 23 2
-4.926758e-01 -6.159920e-01 -2.387494e+00 141 70 29
1.562195e+00 -4.817442e-01 -2.060078e+00 92 87 81
-8.405483e-01 -6.556936e-01 -2.502598e+00 139 88 34
-4.486035e-01 -6.002942e-01 -2.369602e+00 83 17 1
-4.483546e-01 -5.988369e-01 -2.365324e+00 83 17 1
5.502384e-02 -5.501688e-01 -2.303754e+00 117 46 31
-3.768825e-01 -5.637120e-01 -2.336241e+00 142 86 48
-4.497983e-01 -5.699104e-01 -2.370034e+00 77 16 0
-4.672853e-01 -5.616715e-01 -2.375332e+00 143 85 40
-4.665049e-01 -5.608162e-01 -2.373583e+00 143 85 40
-2.931769e-02 -5.360615e-01 -2.332171e+00 78 4 2
-4.559201e-01 -5.541473e-01 -2.375205e+00 84 19 1
-8.439205e-01 -5.562545e-01 -2.453488e+00 102 46 0
-4.843058e-01 -5.229774e-01 -2.374527e+00 88 24 0
-3.392979e-01 -5.003746e-01 -2.333789e+00 80 18 6
1.281435e-01 -4.846421e-01 -2.322223e+00 55 1 1
-2.614860e-01 -4.912250e-01 -2.326061e+00 126 75 22
1.765061e-01 -4.802516e-01 -2.350727e+00 128 47 37
1.768764e-01 -4.824233e-01 -2.350607e+00 128 47 37
-8.429560e-04 -4.837781e-01 -2.340523e+00 125 49 38
3.049244e-02 -4.745936e-01 -2.328806e+00 125 46 34
3.059342e-02 -4.732555e-01 -2.327978e+00 125 46 34
-2.009939e-01 -4.769438e-01 -2.326764e+00 123 39 13
4.860360e-01 -4.881234e-01 -2.400871e+00 25 9 1
-3.192417e-01 -4.714720e-01 -2.331203e+00 75 14 2
5.901792e-02 -4.586063e-01 -2.322005e+00 63 4 2
-4.477229e-01 -4.705853e-01 -2.380516e+00 142 89 53
-5.103143e-01 -4.556956e-01 -2.388713e+00 93 35 4
-4.911951e-01 -4.301899e-01 -2.384824e+00 82 17 0
-4.909663e-01 -4.288441e-01 -2.382087e+00 82 17 0
-3.443463e-01 -4.165806e-01 -2.358145e+00 60 0 0
-4.244747e-01 -4.159096e-01 -2.365682e+00 86 34 1
-1.608733e-01 -3.914765e-01 -2.315405e+00 130 34 12
-4.588999e-01 -4.091745e-01 -2.364792e+00 87 27 4
-4.963445e-01 -4.124639e-01 -2.387720e+00 82 18 0
-4.014366e-01 -3.924203e-01 -2.367615e+00 64 8 0
-4.156450e-01 -3.930148e-01 -2.367290e+00 132 81 42
-4.142829e-01 -3.885584e-01 -2.350828e+00 132 81 42
-4.290199e-01 -3.905760e-01 -2.371337e+00 69 14 0
-3.490046e-01 -3.866784e-01 -2.363250e+00 73 10 0
-8.568991e-01 -4.221369e-01 -2.477233e+00 109 52 7
-1.124804e-01 -3.787831e-01 -2.400109e+00 104 20 1
-4.005110e-01 -3.707981e-01 -2.364082e+00 91 35 3
-1.625627e-01 -3.491536e-01 -2.317563e+00 107 29 3
-4.532495e-01 -3.632660e-01 -2.373219e+00 90 37 3
-4.532337e-01 -3.634340e-01 -2.373822e+00 90 37 3
-8.689769e-01 -4.006399e-01 -2.508331e+00 120 61 5
-1.863668e-01 -3.389326e-01 -2.307449e+00 111 28 2
-1.866969e-01 -3.381913e-01 -2.307180e+00 111 28 2
2.788792e-01 -3.645839e-01 -2.495632e+00 78 0 0
2.573040e-01 -3.411866e-01 -2.375886e+00 78 0 0
2.383483e-01 -3.267692e-01 -2.335672e+00 115 34 27
1.914835e-01 -3.207737e-01 -2.340403e+00 54 1 1
2.167249e-02 -3.164352e-01 -2.302083e+00 60 2 1
3.100499e-03 -3.105335e-01 -2.329877e+00 63 3 3
1.751881e+00 -2.783074e-01 -2.426378e+00 80 67 38
-8.686493e-01 -3.321360e-01 -2.491595e+00 110 52 4
-6.425828e-01 -2.972693e-01 -2.413435e+00 81 34 5
-6.888944e-01 -2.948364e-01 -2.431360e+00 149 92 40
-8.676110e-01 -2.934869e-01 -2.486554e+00 93 33 0
-8.756418e-01 -3.004038e-01 -2.510947e+00 93 33 0
7.732868e-02 -2.299296e-01 -2.322483e+00 101 14 1
-3.370636e-01 -2.473609e-01 -2.366438e+00 72 17 3
-7.850187e-01 -2.696168e-01 -2.462688e+00 87 44 8
-1.066028e-01 -2.180794e-01 -2.325455e+00 115 24 0
-9.548917e-01 -2.595327e-01 -2.559163e+00 118 48 10
-3.815096e-01 -1.932968e-01 -2.370605e+00 129 74 18
-9.747568e-01 -2.325858e-01 -2.551793e+00 124 76 31
-8.167663e-01 -1.700832e-01 -2.479873e+00 142 98 35
-9.494862e-01 -1.754982e-01 -2.541076e+00 107 39 2
-6.733034e-01 -1.230377e-01 -2.438138e+00 78 37 2
-3.404761e-01 -1.033556e-01 -2.364702e+00 88 27 0
2.057719e-01 -7.846574e-02 -2.346981e+00 106 16 0
-3.860386e-01 -9.079225e-02 -2.372270e+00 133 79 31
-6.957559e-01 -1.074537e-01 -2.447896e+00 136 90 35
-7.534619e-01 -1.053802e-01 -2.447360e+00 74 30 0
-6.090841e-01 -9.468269e-02 -2.412051e+00 99 40 1
-6.395414e-01 -9.161491e-02 -2.435381e+00 113 55 3
-6.242097e-01 -8.046769e-02 -2.409377e+00 148 93 30
-3.331216e-01 -5.288590e-02 -2.379793e+00 148 102 54
-3.322029e-01 -5.303859e-02 -2.372273e+00 148 102 54
-3.779184e-01 -5.281525e-02 -2.378777e+00 64 16 1
-6.846992e-01 -4.601218e-02 -2.445110e+00 139 92 39
-6.190723e-02 -9.214713e-03 -2.322906e+00 124 66 23
-9.225245e-02 -6.709641e-03 -2.350980e+00 83 25 2
-7.861354e-01 -3.811465e-02 -2.461980e+00 108 55 6
-7.888671e-01 -3.919307e-02 -2.473237e+00 108 55 6
-7.961339e-02 -3.455825e-03 -2.346118e+00 142 90 40
-6.282772e-02 1.245331e-02 -2.342143e+00 64 13 1
-6.743896e-01 -1.304761e-02 -2.438261e+00 138 91 34
-7.356238e-01 -1.497143e-02 -2.458976e+00 78 35 1
-9.333740e-02 3.488720e-02 -2.340519e+00 84 28 6
5.442372e-02 7.362236e-02 -2.330794e+00 63 19 2
2.881161e-01 8.621692e-02 -2.374741e+00 49 2 1
-2.784573e-01 6.499318e-02 -2.368374e+00 169 114 70
-6.439397e-01 6.359584e-02 -2.444177e+00 97 50 1
-8.267540e-01 5.390814e-02 -2.491027e+00 142 91 35
-8.265678e-01 5.420178e-02 -2.489816e+00 142 91 35
1.250883e-01 9.585514e-02 -2.316982e+00 71 21 7
1.250883e-01 9.585514e-02 -2.316982e+00 71 21 7
-3.521061e-01 8.929473e-02 -2.373974e+00 81 21 2
-3.877009e-01 8.798229e-02 -2.384864e+00 76 11 3
-3.859830e-01 8.881101e-02 -2.370597e+00 76 11 3
-7.981844e-01 7.778735e-02 -2.490116e+00 96 48 1
-3.390547e-01 9.650040e-02 -2.387817e+00 147 94 47
-3.816325e-01 1.077634e-01 -2.359739e+00 79 18 0
-2.803166e-01 1.172493e-01 -2.369416e+00 163 105 52
-4.157712e-01 1.411139e-01 -2.398451e+00 77 26 2
-5.401422e-01 1.479507e-01 -2.424222e+00 151 100 52
1.525416e-01 1.746231e-01 -2.318153e+00 67 16 6
-1.522749e-01 1.616956e-01 -2.346933e+00 64 5 1
-8.366838e-01 1.401581e-01 -2.490467e+00 81 36 0
-4.231505e-01 1.584045e-01 -2.404911e+00 77 21 1
-5.839138e-01 1.564591e-01 -2.422391e+00 145 97 48
-5.017757e-01 1.589263e-01 -2.372857e+00 88 35 3
-7.038802e-01 1.543647e-01 -2.459245e+00 75 28 0
-6.055456e-01 1.586965e-01 -2.440090e+00 149 97 53
-6.057763e-01 1.587888e-01 -2.441311e+00 149 97 53
-1.035784e+00 1.490329e-01 -2.628232e+00 135 102 55
-7.928902e-01 1.736535e-01 -2.487356e+00 107 60 3
-2.790904e-01 1.983737e-01 -2.370873e+00 161 88 46
-3.830396e-01 1.996867e-01 -2.390258e+00 71 20 0
1.762817e-01 2.273026e-01 -2.343873e+00 68 7 0
-3.445292e-01 2.110672e-01 -2.384000e+00 145 92 52
-8.136241e-01 2.020767e-01 -2.521542e+00 96 49 0
-3.846744e-01 2.232359e-01 -2.394006e+00 75 27 1
1.745658e-01 3.151162e-01 -2.349290e+00 63 14 0
-1.494553e-01 3.126982e-01 -2.356204e+00 120 71 30
1.631742e-01 3.343747e-01 -2.358498e+00 132 82 40
1.634278e-01 3.349856e-01 -2.359169e+00 132 82 40
-8.439553e-01 3.272985e-01 -2.524339e+00 159 80 50
3.029572e-01 3.766417e-01 -2.370212e+00 79 40 3
-1.005294e+00 3.663496e-01 -2.603961e+00 108 47 6
-8.369322e-02 5.884337e-01 -2.467645e+00 177 98 58
-1.788193e-01 6.601075e-01 -2.425214e+00 31 26 32
-1.235690e-01 6.777116e-01 -2.412112e+00 11 7 12
-1.105973e+00 8.286307e-01 -2.785880e+00 116 88 38
-1.752514e-01 1.153833e+00 -2.597402e+00 105 93 102
-6.085418e-01 1.191826e+00 -2.668955e+00 48 36 48
4.407914e-01 1.191081e+00 -2.509335e+00 126 115 96
-2.619520e-01 1.242589e+00 -2.697702e+00 94 80 83
4.187497e-01 1.208453e+00 -2.483153e+00 106 90 83
4.349546e-01 1.248623e+00 -2.532784e+00 109 92 78
4.169909e-01 1.256372e+00 -2.496466e+00 98 82 58
-1.068310e+00 1.391642e+00 -2.913921e+00 51 38 22
-7.042298e-02 1.516516e+00 -2.857508e+00 61 47 37
3.125991e-01 -1.321807e-02 -2.452672e+00 106 15 0
-8.115599e-01 -5.057747e-02 -2.443158e+00 103 47 1
5.495487e+00 2.510299e+00 -3.811959e+00 71 57 38
1.915649e-01 -1.220151e+00 -2.086109e+00 42 83 28
2.813226e-02 -1.354626e+00 -2.105187e+00 177 154 110
-8.450076e-02 -1.316922e+00 -2.089235e+00 177 196 137
6.630650e-01 -9.640993e-01 -2.066028e+00 150 174 114
1.916633e-03 -7.837227e-02 -2.394429e+00 133 22 7
-9.826022e-01 -1.582723e+00 -2.061841e+00 25 76 17
5.364221e-01 -9.188430e-01 -2.085712e+00 18 71 8
-3.912087e-01 -4.681682e-02 -2.381204e+00 102 55 26
-4.226070e-01 -1.419990e+00 -2.069287e+00 133 142 97
1.735365e+00 -1.070344e+00 -1.820036e+00 72 70 55
2.400629e-01 1.135178e-01 -2.392354e+00 54 13 0
1.205741e+00 -1.754799e+00 -1.874834e+00 23 19 4
-4.101801e-01 -5.933824e-01 -2.371986e+00 130 72 22
-4.099086e-01 -5.927889e-01 -2.370733e+00 130 72 22
4.199106e-02 -5.193453e-01 -2.326730e+00 59 16 11
-4.198509e-01 -4.545670e-01 -2.388282e+00 141 81 27
-4.198509e-01 -4.545670e-01 -2.388282e+00 141 81 27
2.605142e-01 -4.089261e-01 -2.343981e+00 60 1 0
-4.465402e-01 -4.060061e-01 -2.386170e+00 141 83 26
-4.602236e-01 -3.770514e-01 -2.385102e+00 94 49 15
1.653074e-01 -2.868763e-01 -2.374382e+00 58 3 1
3.433385e-01 -2.089434e-01 -2.369380e+00 52 1 3
3.416082e-01 -2.099176e-01 -2.367221e+00 52 1 3
-8.131902e-01 -1.884089e-01 -2.475417e+00 89 36 4
-6.974732e-01 -1.755984e-01 -2.468300e+00 81 31 2
-7.859186e-01 -1.518141e-01 -2.479972e+00 90 42 6
-8.269281e-01 -1.384158e-01 -2.484074e+00 100 48 7
-8.665137e-01 -3.309838e-02 -2.523254e+00 114 63 9
-8.685630e-01 -2.973278e-02 -2.523151e+00 114 63 9
-1.499642e-01 5.221692e-02 -2.348680e+00 104 44 8
2.986220e-01 9.207961e-02 -2.397964e+00 96 47 34
-8.577501e-01 8.692169e-02 -2.513316e+00 142 95 25
-3.995134e-01 1.289804e-01 -2.369432e+00 138 87 21
-3.995134e-01 1.289804e-01 -2.369432e+00 138 87 21
-8.609000e-02 1.458690e-01 -2.349285e+00 132 73 16
-3.732516e-01 2.384832e-01 -2.346442e+00 145 95 27
-3.732516e-01 2.384832e-01 -2.346442e+00 145 95 27
-3.961750e-01 2.385101e-01 -2.376877e+00 152 100 40
-6.131854e-01 2.886273e-01 -2.433779e+00 165 94 61
-6.011782e-01 2.858723e-01 -2.371403e+00 165 94 61
-9.070558e-01 2.898317e-01 -2.513552e+00 93 47 0
1.049065e+00 -1.561796e+00 -1.966228e+00 30 23 5
-6.928990e-01 -8.177843e-01 -2.440068e+00 90 32 3
-6.928990e-01 -8.177843e-01 -2.440068e+00 90 32 3
-7.447609e-01 -8.077085e-01 -2.504524e+00 132 76 18
-7.322671e-01 -7.878124e-01 -2.455926e+00 132 76 18
-4.575255e-01 -7.345193e-01 -2.357512e+00 88 23 0
2.149531e+00 -6.557327e-01 -2.204325e+00 195 181 138
-7.149843e-01 -7.600166e-01 -2.437519e+00 84 29 1
-7.149843e-01 -7.600166e-01 -2.437519e+00 84 29 1
2.620411e-01 -7.145102e-01 -2.372597e+00 68 0 2
-4.207350e-01 -6.622406e-01 -2.384878e+00 69 13 1
-8.450503e-01 -6.400364e-01 -2.512953e+00 98 46 1
-8.397438e-01 -5.835317e-01 -2.521870e+00 145 88 31
-8.379151e-01 -5.802068e-01 -2.514811e+00 145 88 31
2.302483e-01 -5.041949e-01 -2.333449e+00 58 4 9
2.301069e-01 -5.015353e-01 -2.327890e+00 58 4 9
2.580047e-01 -5.025314e-01 -2.351638e+00 54 0 4
2.580047e-01 -5.025314e-01 -2.351638e+00 54 0 4
-2.128375e-01 -4.631877e-01 -2.355497e+00 124 24 1
-2.128375e-01 -4.631877e-01 -2.355497e+00 124 24 1
-8.896470e-01 -4.586282e-01 -2.585613e+00 112 55 2
-7.167398e-01 -1.458582e-01 -2.468507e+00 145 96 37
-8.249264e-01 1.950871e-01 -2.488645e+00 88 46 4
-8.249264e-01 1.950871e-01 -2.488645e+00 88 46 4
-3.287693e-01 2.148691e-01 -2.396485e+00 61 9 4
-9.075391e-01 2.272683e-01 -2.524686e+00 104 63 11
-6.334792e-02 3.689167e-01 -2.393749e+00 153 112 51
4.457862e-01 1.167520e+00 -2.487689e+00 31 14 10
1.257825e+00 -1.613989e+00 -1.822298e+00 45 45 37
1.319784e+00 -1.395398e+00 -1.803320e+00 83 80 73
1.265243e+00 -1.382509e+00 -1.811401e+00 32 25 6
-4.783729e-01 -1.571312e+00 -2.124137e+00 48 56 9
1.310377e+00 -1.196480e+00 -1.845468e+00 60 59 47
1.310377e+00 -1.196480e+00 -1.845468e+00 60 59 47
5.243198e-01 -1.095065e+00 -2.088952e+00 37 53 8
2.959375e-01 -1.087918e+00 -2.094582e+00 22 34 0
7.423412e-01 -8.737077e-01 -2.072659e+00 31 39 0
-2.312112e-01 -9.439982e-01 -2.337548e+00 153 75 36
8.856781e-01 -7.997838e-01 -2.057193e+00 26 40 2
-2.696800e-01 -8.906005e-01 -2.370554e+00 101 33 0
7.030840e-02 -8.507166e-01 -2.349692e+00 120 37 22
-4.328570e-01 -7.647547e-01 -2.402914e+00 70 7 3
-4.603369e-01 -7.390082e-01 -2.370915e+00 88 22 0
-4.605287e-01 -7.393628e-01 -2.372986e+00 88 22 0
-3.495943e-01 -6.182000e-01 -2.375866e+00 134 77 33
-3.166189e-01 -5.720455e-01 -2.354234e+00 73 9 1
-2.886005e-01 -5.571868e-01 -2.359279e+00 97 31 1
-4.859735e-01 -5.555045e-01 -2.387311e+00 86 20 1
-3.185350e-01 -4.521588e-01 -2.369295e+00 137 79 23
9.473996e-02 -3.981915e-01 -2.339054e+00 71 8 8
-3.362048e-01 -4.017157e-01 -2.362906e+00 135 74 19
2.817724e-02 -3.780674e-01 -2.351389e+00 61 0 0
-6.938867e-01 -3.018820e-01 -2.453681e+00 148 91 43
-3.387794e-01 -2.327199e-01 -2.365548e+00 74 18 7
-3.422712e-01 -1.503008e-01 -2.382724e+00 64 13 6
-5.048212e-01 -1.528197e-01 -2.401108e+00 80 38 5
2.639700e-01 -5.727611e-02 -2.480535e+00 144 56 36
2.405866e-01 -4.299525e-02 -2.366857e+00 144 56 36
6.266627e-02 -3.099244e-02 -2.359674e+00 151 106 68
5.015822e-03 1.221912e-02 -2.349270e+00 72 3 0
-2.770901e-01 4.300709e-02 -2.365918e+00 170 119 73
-2.797251e-01 8.783470e-02 -2.367084e+00 170 112 75
-2.795788e-01 8.724712e-02 -2.368358e+00 170 112 75
-9.090182e-02 1.052814e-01 -2.354502e+00 59 3 0
-4.037538e-01 1.459849e-01 -2.399755e+00 144 98 49
4.338836e-01 2.595119e-01 -2.402143e+00 126 59 24
4.338836e-01 2.595119e-01 -2.402143e+00 126 59 24
-6.768988e-01 2.584500e-01 -2.451225e+00 152 101 46
-1.616683e-01 3.134373e-01 -2.335353e+00 61 6 0
-1.067693e+00 4.146357e-01 -2.671107e+00 126 92 47
-1.328701e-01 9.774754e-01 -2.421431e+00 41 41 51
-3.635753e-01 1.162495e+00 -2.621559e+00 48 37 49
-6.470794e-01 1.488392e+00 -2.887150e+00 35 28 16
5.980393e+00 2.779367e+00 -4.276357e+00 94 84 56
1.280571e+00 -1.829886e+00 -1.847360e+00 35 29 8
-8.895993e-01 -1.739545e+00 -2.121548e+00 39 77 22
-9.408741e-01 -1.604620e+00 -2.079913e+00 50 109 42
-9.983646e-01 -1.655361e+00 -2.169491e+00 26 55 17
-7.430439e-01 -1.623930e+00 -2.129498e+00 48 100 55
-5.649339e-01 -1.602840e+00 -2.116817e+00 48 63 3
1.304552e+00 -1.356314e+00 -1.817787e+00 76 71 53
-7.871076e-01 -1.577563e+00 -2.139670e+00 85 105 34
-8.703883e-01 -1.589651e+00 -2.167142e+00 73 95 63
9.728986e-01 -1.494994e+00 -2.014260e+00 89 80 56
-5.810213e-01 -1.499217e+00 -2.065668e+00 44 95 48
-6.402901e-01 -1.527945e+00 -2.135089e+00 61 95 50
1.369910e+00 -1.216418e+00 -1.824205e+00 58 58 50
1.316182e+00 -1.194941e+00 -1.830132e+00 51 47 36
-3.740215e-01 -1.348736e+00 -2.141727e+00 57 78 33
3.079145e-01 -1.221661e+00 -2.110488e+00 166 154 94
8.127427e-01 -1.171552e+00 -2.131656e+00 23 17 6
4.143310e-01 -1.123285e+00 -2.077569e+00 143 153 112
7.432757e-01 -1.199543e+00 -2.216950e+00 95 83 57
4.109438e-01 -1.005129e+00 -2.100871e+00 185 209 135
5.202940e-01 -9.801402e-01 -2.075550e+00 127 200 122
5.825453e-01 -9.517188e-01 -2.079937e+00 188 209 161
8.183957e-01 -8.895879e-01 -2.063959e+00 150 173 116
7.514170e-01 -8.490739e-01 -2.071167e+00 34 92 13
1.042089e+00 -8.298994e-01 -2.047289e+00 47 55 40
8.401957e-01 -8.287183e-01 -2.052532e+00 14 75 10
1.081279e+00 -7.786057e-01 -2.047381e+00 129 142 103
-3.608585e-01 -9.124389e-01 -2.392458e+00 150 82 45
-3.177394e-01 -8.837028e-01 -2.355959e+00 83 19 6
9.487481e-01 -7.041372e-01 -2.087614e+00 26 27 0
5.000785e-01 -8.718369e-01 -2.475112e+00 154 132 90
-8.170333e-01 -8.795053e-01 -2.474091e+00 158 86 38
-3.762202e-01 -8.132797e-01 -2.360396e+00 76 8 0
-3.196298e-01 -7.995605e-01 -2.344630e+00 77 12 7
-7.003472e-01 -8.406705e-01 -2.429285e+00 94 41 1
-7.755988e-01 -8.399868e-01 -2.454038e+00 89 29 0
1.041900e+00 -6.518145e-01 -2.064248e+00 28 22 2
-4.604873e-01 -7.955617e-01 -2.386578e+00 88 24 6
-3.713901e-01 -7.802035e-01 -2.363391e+00 136 72 24
4.836715e-01 -7.951977e-01 -2.443380e+00 80 53 43
-4.344152e-01 -7.769644e-01 -2.378814e+00 134 74 26
-4.600862e-01 -7.623881e-01 -2.381532e+00 85 20 0
-3.041344e-01 -7.483778e-01 -2.361425e+00 84 22 4
4.732346e-02 -7.195759e-01 -2.335673e+00 66 3 2
-4.083058e-01 -7.201967e-01 -2.371588e+00 70 9 0
2.265199e-01 -7.069433e-01 -2.378782e+00 115 35 24
-3.086452e-01 -6.933679e-01 -2.342625e+00 82 19 2
-7.649893e-01 -7.288815e-01 -2.462944e+00 143 81 33
-1.024713e+00 -7.981387e-01 -2.664863e+00 156 124 82
-3.335538e-01 -6.731632e-01 -2.362907e+00 73 9 0
-3.337421e-01 -6.516736e-01 -2.362741e+00 77 17 0
-3.628011e-01 -5.597063e-01 -2.373869e+00 95 31 1
-4.170356e-02 -5.283520e-01 -2.325142e+00 131 51 35
-4.170356e-02 -5.283520e-01 -2.325142e+00 131 51 35
-7.430665e-01 -5.601695e-01 -2.456024e+00 142 84 31
-4.857328e-01 -5.266093e-01 -2.382979e+00 83 19 0
-3.654237e-01 -5.139262e-01 -2.374293e+00 89 25 1
-8.054004e-01 -5.333026e-01 -2.469833e+00 141 84 28
-1.236501e-01 -4.860619e-01 -2.356652e+00 150 59 38
-1.237810e-01 -4.865779e-01 -2.357822e+00 150 59 38
-2.404510e-01 -4.787071e-01 -2.354223e+00 110 33 2
8.895424e-02 -4.536513e-01 -2.336671e+00 61 2 2
-3.428282e-01 -4.642208e-01 -2.361132e+00 82 23 8
1.639240e-01 -4.456789e-01 -2.344633e+00 119 43 35
2.382571e-01 -4.205482e-01 -2.345957e+00 111 43 31
2.892277e-01 -3.981498e-01 -2.333515e+00 69 0 1
-4.605186e-01 -4.104844e-01 -2.371503e+00 92 34 7
-3.255769e-02 -3.633350e-01 -2.336993e+00 63 6 5
-3.185738e-02 -3.650032e-01 -2.343268e+00 63 6 5
-1.769352e-01 -3.600702e-01 -2.300973e+00 116 41 13
7.587309e-02 -3.519562e-01 -2.341092e+00 131 49 41
-4.973464e-01 -3.639863e-01 -2.392709e+00 99 38 6
7.176967e-02 -2.936420e-01 -2.330767e+00 73 3 0
-6.925270e-01 -2.987757e-01 -2.446959e+00 147 90 43
-7.013046e-01 -2.892062e-01 -2.448108e+00 96 35 0
1.658443e-01 -2.157213e-01 -2.339671e+00 138 53 33
3.210775e-02 -2.076912e-01 -2.340531e+00 109 25 5
3.210775e-02 -2.076912e-01 -2.340531e+00 109 25 5
-3.730496e-01 -2.200002e-01 -2.388167e+00 136 79 18
1.011711e+00 -1.660616e-01 -2.374481e+00 201 186 162
-9.720465e-01 -2.312032e-01 -2.573455e+00 146 91 50
3.909448e-02 -8.965587e-02 -2.364327e+00 160 69 49
-9.547814e-01 -1.342715e-01 -2.545892e+00 112 47 10
-6.065873e-01 -1.082775e-01 -2.425037e+00 139 80 24
-7.092653e-01 -1.132007e-01 -2.460333e+00 92 46 12
2.579788e-01 -6.010392e-02 -2.358617e+00 107 16 0
-7.913643e-01 -8.293564e-02 -2.474047e+00 142 96 43
2.618827e-01 -4.024981e-02 -2.357279e+00 142 54 34
-3.504995e-01 -3.768128e-02 -2.382897e+00 73 16 1
-3.504995e-01 -3.768128e-02 -2.382897e+00 73 16 1
-7.005931e-01 -4.333549e-02 -2.459800e+00 74 27 1
-7.849222e-02 -5.865916e-03 -2.360871e+00 141 90 42
-9.122950e-01 -1.914961e-02 -2.522130e+00 167 107 49
-7.129419e-01 7.099316e-03 -2.460666e+00 131 81 23
3.539702e-01 7.502495e-02 -2.382977e+00 149 89 51
-3.543180e-01 5.787495e-02 -2.398836e+00 94 37 10
-3.760395e-01 9.574337e-02 -2.405398e+00 141 88 37
-5.238544e-01 1.297106e-01 -2.430198e+00 138 83 26
-5.165539e-01 1.296071e-01 -2.391611e+00 138 83 26
-9.254017e-01 1.351076e-01 -2.531557e+00 164 105 47
-4.757430e-02 1.868917e-01 -2.343751e+00 79 29 10
-8.126141e-01 1.727814e-01 -2.510502e+00 138 91 26
-6.841699e-01 1.821084e-01 -2.457152e+00 141 90 30
-1.503339e-01 2.044486e-01 -2.363246e+00 85 26 10
1.279366e-01 2.206134e-01 -2.364149e+00 77 22 12
1.279366e-01 2.206134e-01 -2.364149e+00 77 22 12
-1.162348e-01 2.828869e-01 -2.352296e+00 53 11 7
3.914999e-01 3.089948e-01 -2.388050e+00 138 81 37
-5.467214e-01 2.944406e-01 -2.359557e+00 116 32 4
-9.384601e-01 2.929776e-01 -2.554811e+00 150 94 46
-4.282421e-02 3.256711e-01 -2.350075e+00 126 78 27
-3.883890e-02 3.857190e-01 -2.372888e+00 117 30 3
2.161423e-01 4.301063e-01 -2.383168e+00 155 101 38
-5.053144e-01 5.383770e-01 -2.442281e+00 192 96 57
4.586460e-01 8.352384e-01 -2.465241e+00 151 107 60
-8.516542e-02 1.151551e+00 -2.573182e+00 43 34 44
-1.947622e-01 1.150602e+00 -2.583328e+00 52 38 47
-4.525823e-01 1.175052e+00 -2.650951e+00 50 38 50
1.055756e-01 1.172133e+00 -2.530339e+00 52 39 43
1.282055e-01 1.186281e+00 -2.535406e+00 55 42 50
1.282055e-01 1.186281e+00 -2.535406e+00 55 42 50
-3.402553e-01 1.207835e+00 -2.615734e+00 99 84 87
-3.336503e-01 1.238408e+00 -2.687720e+00 92 80 84
-7.813773e-01 1.249344e+00 -2.745776e+00 79 68 86
-9.513485e-01 1.393966e+00 -2.891382e+00 29 22 35
-5.248293e-02 1.482850e+00 -2.788251e+00 42 27 19
6.149599e+00 3.742872e+00 -4.686019e+00 12 11 6
7.539490e-01 -8.525190e-01 -2.045396e+00 144 175 105
7.539490e-01 -8.525190e-01 -2.045396e+00 144 175 105
-2.686805e-01 -1.474042e+00 -2.082624e+00 170 153 108
1.936702e-01 -1.238477e+00 -2.111660e+00 44 85 28
2.626533e-02 -1.335273e+00 -2.079798e+00 177 156 110
-4.204794e-01 -1.383499e+00 -2.143266e+00 25 89 36
-6.906759e-01 1.648524e-01 -2.445002e+00 102 58 23
-6.908492e-01 1.646541e-01 -2.445660e+00 102 58 23
-7.237328e-01 -1.563525e+00 -2.088232e+00 173 185 134
3.920064e-01 -1.134996e+00 -2.111935e+00 165 176 123
-1.147110e-01 1.403798e-01 -2.365175e+00 132 75 8
-1.147110e-01 1.403798e-01 -2.365175e+00 132 75 8
4.907508e-01 2.701544e-01 -2.497608e+00 129 83 42
2.575018e+00 -1.063799e+00 -1.871538e+00 179 165 122
1.567610e-01 -4.909540e-01 -2.345059e+00 62 6 2
-6.986599e-01 -1.508113e-01 -2.465293e+00 142 94 19
7.514608e-02 1.694469e-02 -2.397656e+00 83 39 27
6.719053e-02 1.935708e-01 -2.324957e+00 93 51 28
6.719053e-02 1.935708e-01 -2.324957e+00 93 51 28
-7.696889e-01 9.796101e-01 -2.258025e+00 95 85 77
8.584139e-01 -9.083034e-01 -2.060996e+00 96 111 79
7.497729e-01 -8.263155e-01 -2.078186e+00 13 79 9
-4.441196e-01 -7.820404e-01 -2.380652e+00 141 77 27
3.170035e-01 -4.892479e-01 -2.398412e+00 61 0 0
2.966240e-01 -3.951776e-01 -2.351878e+00 57 2 0
1.574109e+00 -2.351069e-01 -2.351691e+00 196 183 143
-8.284981e-01 -1.135093e-01 -2.491298e+00 142 99 30
-8.715075e-01 1.124837e+00 -2.653831e+00 108 94 87
1.938803e+00 -1.895250e+00 -1.869715e+00 28 22 6
-8.803451e-01 -1.581133e+00 -2.167801e+00 195 183 156
-6.070077e-01 -1.493860e+00 -2.122456e+00 170 198 121
1.327842e+00 -1.182899e+00 -1.802807e+00 59 57 46
1.327842e+00 -1.182899e+00 -1.802807e+00 59 57 46
-3.087328e-01 -1.362772e+00 -2.106623e+00 32 47 12
-3.825127e-01 -1.348017e+00 -2.118653e+00 24 66 21
1.283538e-01 -1.279686e+00 -2.098532e+00 46 49 2
-2.321876e-01 -1.264375e+00 -2.128060e+00 187 178 142
5.934219e-01 -9.431116e-01 -2.077107e+00 16 30 0
5.908267e-01 -8.875866e-01 -2.068126e+00 5 65 2
9.589943e-01 -7.226137e-01 -2.079684e+00 15 55 5
1.649891e-01 -8.438010e-01 -2.350490e+00 77 1 1
-3.154274e-01 -7.742883e-01 -2.351747e+00 131 66 24
-3.152478e-01 -7.732289e-01 -2.348206e+00 131 66 24
-3.396783e-01 -7.542938e-01 -2.362738e+00 141 80 32
4.837787e-01 -5.173466e-01 -2.433689e+00 23 2 0
-4.901547e-01 -5.061859e-01 -2.383186e+00 85 15 0
5.040935e-01 -4.595624e-01 -2.421864e+00 202 187 158
1.857849e-01 -3.422828e-01 -2.339825e+00 117 40 26
3.128196e-01 -2.956632e-01 -2.517049e+00 116 37 27
4.825035e-01 -2.363616e-01 -2.395944e+00 130 113 70
-8.081503e-01 -2.792901e-01 -2.476676e+00 75 31 2
1.381676e-01 -1.180999e-01 -2.356683e+00 105 15 0
-5.841143e-02 -5.356247e-02 -2.359320e+00 161 110 71
-1.410905e-01 1.905761e-01 -2.355771e+00 134 77 17
-9.856808e-01 1.900925e-01 -2.561882e+00 114 52 13
-1.999962e-02 2.244657e-01 -2.343615e+00 132 78 17
-6.295205e-01 2.517737e-01 -2.404282e+00 156 105 48
-9.935859e-01 2.860172e-01 -2.553818e+00 113 54 14
1.673863e-01 3.272401e-01 -2.378921e+00 133 86 39
-5.633941e-02 3.290766e-01 -2.352239e+00 54 2 0
-2.628556e-01 1.150448e+00 -2.587591e+00 47 35 46
-1.065428e+00 1.181038e+00 -2.683383e+00 57 41 35
-8.552833e-01 -1.604815e+00 -2.049200e+00 171 200 162
-7.215741e-01 -1.687457e+00 -2.137077e+00 41 64 9
-8.802430e-01 -1.641406e+00 -2.128403e+00 30 65 1
1.226352e+00 -1.372945e+00 -1.781560e+00 32 29 14
1.231729e+00 -1.335369e+00 -1.748343e+00 54 48 34
1.321983e+00 -1.347669e+00 -1.796053e+00 65 62 52
9.856797e-01 -1.515762e+00 -2.024095e+00 88 78 51
-6.132447e-01 -1.532412e+00 -2.132497e+00 171 193 147
-4.191127e-01 -1.477631e+00 -2.115149e+00 30 66 23
1.128983e+00 -1.269407e+00 -1.879476e+00 37 37 29
-4.186872e-01 -1.352484e+00 -2.135401e+00 188 181 150
2.585273e+00 -1.177304e+00 -1.859093e+00 51 49 30
2.548258e+00 -1.059496e+00 -1.845528e+00 181 168 126
1.369178e-01 -1.174589e+00 -2.088489e+00 51 109 50
8.065002e-01 -1.163066e+00 -2.118780e+00 23 16 6
1.835819e+00 -9.857888e-01 -1.829397e+00 67 64 54
3.475770e-01 -1.116608e+00 -2.077811e+00 154 182 139
1.088109e+00 -9.868447e-01 -1.990324e+00 43 43 35
4.564516e-01 -1.038451e+00 -2.084417e+00 43 76 25
1.253747e+00 -8.797773e-01 -2.004665e+00 55 52 45
9.204153e-01 -8.284830e-01 -2.054598e+00 182 211 163
9.329577e-01 -8.229229e-01 -2.050905e+00 55 76 30
-4.672827e-01 -9.460188e-01 -2.370221e+00 164 104 65
-3.169857e-01 -9.008192e-01 -2.356965e+00 79 13 0
1.051235e+00 -7.580926e-01 -2.062117e+00 37 72 20
4.454020e-02 -8.839716e-01 -2.343217e+00 73 1 1
2.635681e-02 -8.798030e-01 -2.341424e+00 72 5 1
9.649574e-01 -7.442328e-01 -2.058690e+00 43 130 43
-3.711071e-01 -8.879824e-01 -2.366343e+00 90 30 7
3.865746e-01 -8.723848e-01 -2.391903e+00 63 28 21
1.563821e-01 -8.533751e-01 -2.365460e+00 121 32 24
8.770069e-01 -7.113586e-01 -2.055662e+00 8 24 4
-4.033490e-01 -8.139993e-01 -2.371939e+00 69 11 0
-4.245421e-01 -8.051277e-01 -2.366554e+00 80 16 2
-4.057232e-01 -7.656738e-01 -2.365790e+00 72 13 0
-4.818668e-01 -7.771650e-01 -2.422978e+00 137 73 29
1.394822e-01 -7.440111e-01 -2.364381e+00 75 3 1
1.407220e-01 -7.470918e-01 -2.370659e+00 75 3 1
-3.264800e-01 -7.446833e-01 -2.356077e+00 80 13 0
4.659622e-02 -7.389552e-01 -2.358189e+00 74 6 2
-3.293126e-01 -7.154640e-01 -2.355313e+00 79 13 0
-4.096487e-01 -7.217909e-01 -2.371038e+00 64 6 0
-4.607094e-01 -7.271392e-01 -2.381742e+00 132 68 13
-8.586377e-01 -7.654197e-01 -2.503501e+00 161 98 54
-3.860399e-01 -6.590634e-01 -2.374264e+00 81 21 1
-7.372166e-01 -6.540633e-01 -2.452147e+00 148 87 39
-7.796010e-01 -6.561147e-01 -2.470680e+00 91 33 2
-8.362959e-01 -6.548349e-01 -2.488793e+00 138 87 33
5.897253e-02 -5.557855e-01 -2.330749e+00 115 42 32
6.106286e-02 -5.630512e-01 -2.352385e+00 115 42 32
-8.377220e-01 -6.083519e-01 -2.478608e+00 146 89 30
-3.403805e-01 -5.625876e-01 -2.374191e+00 79 18 1
-9.420999e-03 -5.396997e-01 -2.340956e+00 69 4 2
-3.187720e-01 -5.298948e-01 -2.362230e+00 77 13 1
-4.568656e-01 -5.141354e-01 -2.385800e+00 73 11 0
6.908433e-02 -4.858680e-01 -2.324365e+00 116 34 21
-3.221274e-01 -4.673119e-01 -2.358719e+00 71 12 2
2.702804e-01 -4.517945e-01 -2.368023e+00 74 2 2
-4.586141e-01 -4.642735e-01 -2.380481e+00 80 16 6
-3.237312e-01 -4.363345e-01 -2.368176e+00 74 8 3
-9.441128e-01 -4.392262e-01 -2.509295e+00 121 67 20
-3.254940e-01 -3.865446e-01 -2.360941e+00 73 14 0
4.610028e-02 -3.650651e-01 -2.333793e+00 60 2 3
-3.501776e-01 -3.704206e-01 -2.380329e+00 84 28 6
1.412900e-01 -3.450126e-01 -2.350755e+00 58 0 1
-3.318582e-02 -3.371860e-01 -2.343806e+00 63 3 3
-1.525798e-02 -3.109456e-01 -2.331032e+00 69 4 2
-7.207287e-01 -2.344459e-01 -1.877665e+00 123 77 35
1.823021e+00 -2.905570e-01 -2.525813e+00 79 67 38
1.666652e+00 -2.683922e-01 -2.413974e+00 49 51 30
-8.728560e-01 -3.333833e-01 -2.501813e+00 115 57 3
2.047737e-01 -2.708751e-01 -2.351081e+00 121 55 49
-8.812638e-01 -2.321383e-01 -2.506966e+00 108 57 2
-3.079644e-01 -1.873115e-01 -2.368409e+00 80 21 0
-4.302133e-01 -1.562109e-01 -2.394179e+00 145 94 26
-3.096662e-01 -1.119817e-01 -2.368177e+00 85 20 4
-3.085276e-01 -8.798938e-02 -2.354097e+00 101 40 9
-1.072762e-01 -5.750368e-02 -2.359218e+00 159 98 53
-6.783506e-01 -6.287389e-02 -2.416772e+00 100 46 0
-6.421510e-01 -3.946450e-02 -2.438648e+00 77 39 1
2.912572e-01 5.626759e-02 -2.363566e+00 108 45 2
-6.741218e-01 2.287602e-02 -2.439564e+00 138 86 28
8.095095e-02 5.811995e-02 -2.343742e+00 58 5 3
-1.917490e-01 8.728573e-02 -2.371303e+00 118 42 4
-2.787563e-01 8.885800e-02 -2.351867e+00 170 113 69
-2.790470e-01 8.838169e-02 -2.353047e+00 170 113 69
-3.185771e-01 1.055436e-01 -2.375413e+00 86 25 3
8.909298e-03 1.505998e-01 -2.326210e+00 126 72 20
-4.173127e-01 1.378865e-01 -2.397015e+00 71 20 4
-3.469746e-01 1.518306e-01 -2.378351e+00 78 32 8
-7.032647e-01 1.539078e-01 -2.452510e+00 71 18 6
-1.034245e+00 1.471053e-01 -2.616228e+00 134 102 56
-7.037857e-01 1.880656e-01 -2.445210e+00 141 89 27
-4.065289e-01 2.206178e-01 -2.398611e+00 63 7 1
-3.611022e-01 2.236130e-01 -2.384334e+00 80 27 2
-9.106905e-01 2.382567e-01 -2.519724e+00 105 61 3
-5.143946e-01 2.846996e-01 -2.356661e+00 164 80 50
3.939474e-01 3.315195e-01 -2.385280e+00 105 49 2
-1.203166e-01 3.242404e-01 -2.364114e+00 61 8 0
-1.205614e-01 3.242273e-01 -2.368945e+00 61 8 0
-1.725957e-01 3.312166e-01 -2.377519e+00 123 73 27
-7.523246e-01 3.298347e-01 -2.465261e+00 119 35 9
3.635241e-01 3.952327e-01 -2.385611e+00 138 87 35
-8.403614e-02 3.768808e-01 -2.372092e+00 117 30 0
-1.976563e-02 3.860869e-01 -2.333318e+00 120 30 2
-7.622840e-01 3.757641e-01 -2.453076e+00 122 35 5
-5.483086e-01 5.529651e-01 -2.417233e+00 135 38 3
-1.416415e-01 6.552568e-01 -2.376976e+00 43 38 38
-1.814314e-02 1.143690e+00 -2.549119e+00 102 89 98
-5.326264e-01 1.170914e+00 -2.635960e+00 95 84 88
-1.182962e-01 1.186598e+00 -2.587602e+00 44 34 42
-6.615597e-01 1.209871e+00 -2.697424e+00 44 33 45
-3.378243e-01 1.206033e+00 -2.604972e+00 100 86 90
-1.439582e-01 1.240608e+00 -2.649199e+00 48 35 44
-1.674786e-01 1.215169e+00 -2.595555e+00 50 37 46
-1.090613e+00 1.285449e+00 -2.769295e+00 57 40 16
1.083960e+00 -8.497879e-01 -2.040167e+00 4 6 1
2.542219e+00 -1.309347e+00 -1.810339e+00 166 151 112
-2.617995e-01 -1.399266e+00 -2.058733e+00 37 91 30
-6.224811e-01 -1.466855e+00 -2.129080e+00 22 81 22
-2.640573e-01 -1.258930e+00 -2.065381e+00 33 92 35
-2.125235e-01 -1.237843e+00 -2.068811e+00 35 90 30
1.942474e-01 -1.057888e+00 -1.910768e+00 159 182 124
2.000561e-01 -1.130478e+00 -2.079597e+00 14 105 21
-8.487221e-01 -1.566817e+00 -2.020496e+00 136 149 105
-8.594559e-01 -1.564254e+00 -2.125403e+00 28 85 33
1.496050e+00 -1.179295e+00 -1.782369e+00 59 57 41
-1.528871e-01 -3.786955e-01 -2.345288e+00 132 60 28
-1.528871e-01 -3.786955e-01 -2.345288e+00 132 60 28
-5.459397e-01 -8.976330e-02 -2.388923e+00 99 41 0
-5.785122e-01 1.011134e-02 -2.395399e+00 96 42 0
-5.785122e-01 1.011134e-02 -2.395399e+00 96 42 0
-9.276626e-02 1.141853e-01 -2.359100e+00 92 45 23
-1.581089e-01 3.273562e-01 -2.346814e+00 80 36 20
-1.599050e-01 3.241443e-01 -2.325302e+00 80 36 20
-4.094329e-02 3.690653e-01 -2.350471e+00 156 116 44
-4.305136e-01 1.077220e+00 -2.362684e+00 52 42 59
-7.305072e-01 1.245714e+00 -2.731725e+00 52 41 58
-5.378317e-01 -1.553320e+00 -2.048251e+00 148 139 91
-3.459385e-01 -1.495844e+00 -2.107782e+00 54 71 24
-3.418288e-01 -1.355385e+00 -2.110152e+00 187 212 147
7.291223e-01 -9.676090e-01 -2.052934e+00 13 31 0
2.099847e+00 -7.202952e-01 -1.938371e+00 39 29 5
-5.427378e-01 -3.315340e-01 -2.429113e+00 68 25 1
-2.752859e-02 6.091070e-03 -2.383280e+00 75 27 12
-8.921274e-01 2.563168e-02 -2.532291e+00 104 66 11
-1.404433e-01 1.457020e-01 -2.355812e+00 141 81 16
-7.385861e-02 2.186529e-01 -2.362984e+00 94 51 16
-4.230216e-02 2.793841e-01 -2.346899e+00 60 25 8
-4.230216e-02 2.793841e-01 -2.346899e+00 60 25 8
-6.955821e-01 -1.565864e+00 -2.096856e+00 173 197 127
7.999214e-01 -9.070550e-01 -2.034203e+00 15 42 15
8.611191e-01 -9.128545e-01 -2.068249e+00 93 110 73
-5.947519e-01 -8.763561e-01 -2.403780e+00 86 20 0
-6.574720e-01 -8.784356e-01 -2.446481e+00 94 41 2
-6.574720e-01 -8.784356e-01 -2.446481e+00 94 41 2
1.587170e-01 -7.852911e-01 -2.316341e+00 78 4 3
-8.281187e-01 -7.763831e-01 -2.491811e+00 96 41 3
-2.980457e-01 -6.254715e-01 -2.358922e+00 131 65 13
-4.266023e-01 -5.648543e-01 -2.374855e+00 77 25 0
1.357553e-01 -5.485103e-01 -2.381328e+00 60 0 0
1.084437e-01 -5.295455e-01 -2.347630e+00 126 33 19
-2.048659e-02 -5.096029e-01 -2.336125e+00 137 39 20
-2.897136e-01 -5.032622e-01 -2.337789e+00 107 44 3
1.650763e-01 -4.975284e-01 -2.380016e+00 66 7 5
1.310988e-01 -4.663862e-01 -2.311642e+00 124 31 17
1.310988e-01 -4.663862e-01 -2.311642e+00 124 31 17
2.166707e-01 -4.665506e-01 -2.335002e+00 60 2 0
1.480623e-01 -4.434859e-01 -2.331987e+00 73 1 1
1.480623e-01 -4.434859e-01 -2.331987e+00 73 1 1
1.811594e-01 -4.395337e-01 -2.347890e+00 64 3 2
6.975855e-01 -3.491342e-01 -2.409237e+00 37 31 19
-8.740269e-01 -1.689044e-01 -2.507156e+00 100 57 4
-7.662756e-01 1.052935e-02 -2.461959e+00 139 91 28
4.039767e-02 1.584251e-01 -2.346511e+00 130 72 9
-1.046479e+00 1.822547e-01 -2.655624e+00 135 95 52
-1.923715e-01 2.753250e-01 -2.339970e+00 170 113 58
1.147700e+00 -1.289868e+00 -1.813893e+00 42 42 34
1.162810e+00 -1.306416e+00 -1.833026e+00 42 42 34
-4.609001e-01 -1.437116e+00 -2.116792e+00 40 58 2
1.228302e+00 -1.159552e+00 -1.835240e+00 78 79 68
2.554510e+00 -1.101121e+00 -1.851270e+00 97 89 60
5.591125e-01 -1.044289e+00 -2.063339e+00 123 139 92
8.549873e-01 -8.863102e-01 -2.051760e+00 12 54 5
2.095840e+00 -7.646972e-01 -1.845640e+00 63 58 47
1.385855e+00 -7.927722e-01 -2.010182e+00 61 61 51
1.056498e+00 -7.640581e-01 -2.031578e+00 33 79 21
-7.406442e-01 -9.067373e-01 -2.445948e+00 168 109 67
-4.212588e-01 -7.247077e-01 -2.368969e+00 136 75 24
-2.477723e-01 -5.622736e-01 -2.360226e+00 174 110 66
-1.556713e-01 -4.634984e-01 -2.353368e+00 117 27 1
-1.165226e-01 -3.643358e-01 -2.334088e+00 115 24 0
1.970411e-01 -2.711634e-01 -2.380995e+00 66 0 0
-8.476992e-01 -2.554657e-01 -2.508769e+00 97 46 5
-7.936789e-01 -1.820531e-01 -2.474406e+00 151 99 32
-3.089509e-01 -1.098234e-01 -2.353694e+00 91 26 2
-7.550594e-01 -1.050490e-01 -2.446647e+00 80 38 0
-2.715463e-01 -4.521913e-02 -2.348986e+00 165 118 63
3.198732e-01 -6.528639e-03 -2.342134e+00 145 59 36
-3.108628e-01 2.027709e-01 -2.356733e+00 141 83 24
-5.144415e-01 2.441258e-01 -2.343776e+00 159 104 44
2.180222e-01 3.443964e-01 -2.349906e+00 76 32 2
1.107613e-01 4.161122e-01 -2.380298e+00 120 33 2
-7.142498e-01 1.090533e+00 -2.610717e+00 116 106 96
-3.080625e-01 1.189238e+00 -2.575073e+00 102 91 96
1.261263e+00 -1.791034e+00 -1.871365e+00 67 65 50
-9.743853e-01 -1.737320e+00 -2.102656e+00 186 183 142
-8.635222e-01 -1.700438e+00 -2.127652e+00 46 98 46
-6.526779e-01 -1.537498e+00 -2.023991e+00 156 176 134
1.289004e+00 -1.315833e+00 -1.759178e+00 61 59 46
-6.953131e-01 -1.536407e+00 -2.078660e+00 25 75 1
-8.149720e-01 -1.570835e+00 -2.122812e+00 41 103 33
-6.967607e-01 -1.476453e+00 -2.044505e+00 68 150 65
-6.146876e-01 -1.446794e+00 -2.039399e+00 53 96 47
-6.544504e-01 -1.511922e+00 -2.130051e+00 177 211 153
-5.025239e-01 -1.441976e+00 -2.126106e+00 171 213 147
1.180669e+00 -1.153683e+00 -1.840875e+00 22 22 14
1.149886e+00 -1.137315e+00 -1.848781e+00 78 76 63
4.625157e-02 -1.200223e+00 -2.063624e+00 26 78 3
6.009408e-01 -1.034497e+00 -2.053573e+00 100 102 61
3.239788e-01 -1.025321e+00 -2.050796e+00 49 140 45
5.191630e-01 -9.023172e-01 -2.079177e+00 44 78 14
9.462729e-01 -8.402661e-01 -2.062060e+00 152 178 134
-2.830734e-01 -8.974957e-01 -2.353349e+00 136 71 23
-4.189961e-01 -8.010504e-01 -2.387237e+00 142 80 36
-3.942917e-01 -7.747237e-01 -2.374960e+00 128 68 23
-4.768400e-01 -7.582428e-01 -2.388342e+00 144 75 23
-4.470727e-01 -7.620124e-01 -2.406196e+00 140 81 38
1.711836e+00 -5.885536e-01 -2.026890e+00 58 55 46
-9.963044e-01 -8.224545e-01 -2.627870e+00 127 80 38
-3.110056e-01 -7.084469e-01 -2.379109e+00 82 22 2
-1.918175e-01 -6.507525e-01 -2.358424e+00 160 72 42
-3.333556e-01 -6.477047e-01 -2.353446e+00 88 27 6
-3.146956e-01 -6.280790e-01 -2.369976e+00 78 12 1
-3.353480e-01 -6.015726e-01 -2.351861e+00 74 7 1
4.128684e-02 -5.623442e-01 -2.389471e+00 119 36 21
-7.136751e-01 -5.467397e-01 -2.447330e+00 120 47 4
-7.112487e-01 -5.445786e-01 -2.437769e+00 120 47 4
-2.255669e-01 -5.031687e-01 -2.361613e+00 157 68 40
2.668881e-01 -4.819863e-01 -2.344518e+00 64 2 1
2.144151e-01 -4.596130e-01 -2.348541e+00 70 4 2
-5.088965e-01 -4.513462e-01 -2.372692e+00 106 39 8
2.797557e-01 -3.926112e-01 -2.340169e+00 118 38 28
-4.964569e-01 -4.018338e-01 -2.398976e+00 141 82 18
-3.500894e-01 -3.907265e-01 -2.375562e+00 79 20 0
-2.011695e-01 -3.598894e-01 -2.328897e+00 132 37 12
4.129154e-03 -3.120837e-01 -2.333191e+00 66 6 7
1.473135e-01 -2.875830e-01 -2.380236e+00 123 41 24
3.374312e-01 -2.768019e-01 -2.369057e+00 113 34 22
-5.824658e-01 -2.878049e-01 -2.356594e+00 144 89 33
-7.056245e-01 -3.049777e-01 -2.444080e+00 110 47 6
-7.056245e-01 -3.049777e-01 -2.444080e+00 110 47 6
-6.986867e-01 -2.854682e-01 -2.435213e+00 111 49 0
1.367869e+00 -1.892076e-01 -2.365862e+00 84 80 66
-3.111555e-01 -1.749764e-01 -2.363103e+00 137 86 20
-3.833115e-01 -1.442756e-01 -2.357473e+00 139 90 22
5.003868e-02 -1.257235e-01 -2.321266e+00 152 57 32
-9.142186e-02 -1.075805e-01 -2.329861e+00 159 73 39
-3.301067e-01 -9.955783e-02 -2.374614e+00 146 90 24
-7.398482e-01 -9.649918e-02 -2.434522e+00 148 102 44
-7.237074e-01 -6.087089e-02 -2.441164e+00 107 56 2
-7.721395e-01 -6.469157e-02 -2.467914e+00 102 49 0
-7.613243e-01 -1.822228e-02 -2.461135e+00 92 51 4
3.558885e-02 2.887809e-02 -2.332756e+00 70 17 0
-2.650804e-01 2.407010e-02 -2.366033e+00 110 47 4
-8.317986e-01 6.590125e-02 -2.469683e+00 110 60 0
4.344418e-01 1.473396e-01 -2.448479e+00 152 92 47
-5.973365e-01 1.468956e-01 -2.429374e+00 93 39 8
-6.033450e-01 1.585877e-01 -2.423436e+00 144 96 41
-8.009113e-01 1.570834e-01 -2.454073e+00 101 57 6
-1.979369e-01 1.886499e-01 -2.338085e+00 125 40 9
6.213205e-02 2.877149e-01 -2.326593e+00 58 12 2
-8.787496e-01 2.643702e-01 -2.505653e+00 118 66 4
1.122553e-01 2.991265e-01 -2.339133e+00 67 13 6
-9.019480e-01 2.791671e-01 -2.530057e+00 101 53 3
2.471524e-01 3.564815e-01 -2.350220e+00 61 20 0
-8.408875e-01 3.254679e-01 -2.510351e+00 157 81 49
-8.297627e-01 3.344139e-01 -2.502990e+00 126 43 13
-7.744162e-01 3.674009e-01 -2.485355e+00 123 42 7
-7.705051e-01 3.656107e-01 -2.470809e+00 123 42 7
4.028058e-01 4.738678e-01 -2.428835e+00 97 50 6
-6.623583e-01 9.812673e-01 -2.338267e+00 43 35 49
-4.849112e-01 1.164855e+00 -2.631938e+00 100 88 93
-4.467233e-01 1.159520e+00 -2.612040e+00 54 42 52
-1.114202e+00 1.203534e+00 -2.794680e+00 97 84 74
-1.022730e+00 1.383804e+00 -2.840167e+00 175 167 121
-7.094870e-02 1.367999e+00 -2.623569e+00 75 65 73
-8.334422e-01 -6.555510e-02 -2.529257e+00 126 72 0
-6.986465e-01 -1.453713e+00 -2.042216e+00 28 111 27
-3.028833e-01 -1.416335e+00 -2.078632e+00 20 100 19
2.959680e-01 -1.140133e+00 -2.062154e+00 28 92 23
-3.881329e-01 -1.486239e+00 -2.133975e+00 168 188 130
2.189039e+00 -6.708319e-01 -2.172261e+00 201 185 140
-5.295440e-01 -1.538366e+00 -2.067836e+00 54 98 33
8.284582e-02 -5.758730e-02 -2.374561e+00 136 23 3
-1.528212e-01 -3.787817e-01 -2.345908e+00 137 63 24
-3.353629e-01 -3.824236e-01 -2.383539e+00 97 40 3
-4.060038e-03 1.306165e-01 -2.340618e+00 96 42 11
-8.760493e-01 3.704529e-01 -2.505755e+00 145 49 11
-8.760493e-01 3.704529e-01 -2.505755e+00 145 49 11
-5.788469e-01 -1.441853e+00 -2.006399e+00 31 98 40
1.828309e-01 -1.228353e+00 -2.068596e+00 55 75 4
5.100272e-02 -5.309532e-01 -2.444183e+00 131 30 12
-3.086341e-01 -3.922543e-01 -2.364395e+00 149 92 11
2.346205e-01 -3.143833e-01 -2.374994e+00 66 6 7
-6.175206e-01 -3.105763e-01 -2.391653e+00 93 40 6
2.738343e-01 -1.722321e-01 -2.345418e+00 155 59 34
-1.476472e-02 1.812775e-01 -2.318117e+00 90 37 6
3.370354e-01 3.288707e-01 -2.418321e+00 103 52 3
-7.886576e-01 3.447469e-01 -2.480784e+00 147 48 16
-8.227731e-01 -1.580106e+00 -2.040331e+00 162 191 114
-6.205682e-01 -1.551353e+00 -2.041550e+00 152 169 108
-6.234965e-01 -1.532709e+00 -2.042610e+00 27 80 2
1.271052e+00 -1.383952e+00 -1.819751e+00 36 32 5
8.498712e-01 -1.223296e+00 -2.148531e+00 20 14 2
8.498712e-01 -1.223296e+00 -2.148531e+00 20 14 2
-5.226588e-01 -9.563008e-01 -2.405810e+00 173 115 68
1.043785e+00 -6.839615e-01 -2.028030e+00 150 112 60
1.392154e+00 -5.969201e-01 -2.082577e+00 108 103 81
1.372986e+00 -5.879734e-01 -2.060535e+00 108 103 81
1.225754e-01 -1.729282e-01 -2.301589e+00 159 69 37
-3.111315e-01 -1.121561e-01 -2.385148e+00 108 46 0
-8.575912e-01 -2.087977e-02 -2.476918e+00 122 70 0
1.959225e-01 9.876676e-02 -2.380484e+00 82 25 2
-8.676595e-01 7.565526e-02 -2.488327e+00 118 69 1
1.841257e-01 2.207037e-01 -2.421941e+00 84 22 0
-1.487502e-01 2.784561e-01 -2.330714e+00 71 9 4
-1.500026e-01 2.792939e-01 -2.324547e+00 71 9 4
1.945342e-01 4.249961e-01 -2.363965e+00 171 117 55
-9.693678e-01 1.148296e+00 -2.649760e+00 113 96 92
-9.166836e-01 -1.562637e+00 -2.041234e+00 173 204 146
-6.545086e-01 -1.522706e+00 -2.140632e+00 182 224 160
-4.915100e-01 -1.490442e+00 -2.166604e+00 51 103 46
-3.855813e-01 -1.292818e+00 -2.052510e+00 187 208 170
2.228273e-02 -1.122097e+00 -2.072160e+00 65 101 54
5.505564e-01 -1.028503e+00 -2.076244e+00 24 80 4
2.344409e+00 -8.735336e-01 -1.986926e+00 44 32 10
-4.289300e-01 -7.891481e-01 -2.373024e+00 100 33 1
-7.155646e-01 -8.188863e-01 -2.499118e+00 152 91 24
-3.438592e-01 -6.553499e-01 -2.353091e+00 143 84 23
-2.299631e-01 -4.587073e-01 -2.358869e+00 167 77 42
-8.732708e-01 -4.448387e-01 -2.535694e+00 120 60 2
2.157306e-01 -1.516393e-01 -2.350058e+00 151 62 34
2.157306e-01 -1.516393e-01 -2.350058e+00 151 62 34
3.468418e-01 6.592170e-02 -2.412049e+00 155 86 43
-8.912215e-01 4.047778e-02 -2.497112e+00 112 71 2
-6.638301e-01 6.684111e-02 -2.406722e+00 154 107 36
-1.857985e-01 1.436115e-01 -2.337841e+00 180 124 64
-5.355114e-01 1.553237e-01 -2.380712e+00 155 105 47
-1.028372e+00 1.863308e-01 -2.602905e+00 144 109 59
-4.622861e-01 5.335354e-01 -2.440102e+00 189 80 38
-6.519652e-01 1.203548e+00 -3.152339e+00 43 43 55
-1.022029e+00 1.223750e+00 -2.597036e+00 67 51 30
1.123960e+00 -1.653159e+00 -1.822690e+00 77 73 44
-9.097712e-01 -1.642837e+00 -2.027462e+00 24 76 2
-4.061420e-01 -1.415595e+00 -2.037587e+00 55 102 56
-4.889545e-02 -1.212156e+00 -2.065828e+00 54 130 58
7.979486e-01 -1.039127e+00 -2.101101e+00 59 53 37
7.873185e-01 -9.106108e-01 -2.044438e+00 40 83 38
7.317688e-01 -8.506847e-01 -2.076030e+00 38 90 6
7.617363e-01 -7.682458e-01 -2.035829e+00 63 113 45
1.807332e-01 -8.006397e-01 -2.352845e+00 128 33 22
1.824593e-01 -8.064640e-01 -2.365052e+00 128 33 22
2.211827e-01 -7.848828e-01 -2.337231e+00 117 31 19
-4.424972e-01 -7.956348e-01 -2.372772e+00 154 91 42
-3.477799e-01 -7.989331e-01 -2.384392e+00 118 47 4
2.190293e-01 -7.617491e-01 -2.327114e+00 119 33 18
6.433196e-02 -5.800147e-01 -2.379601e+00 136 43 31
-1.847611e-01 -5.415914e-01 -2.361633e+00 173 78 45
2.157244e-01 -4.901753e-01 -2.417220e+00 124 42 28
2.150156e-01 -4.888063e-01 -2.410031e+00 124 42 28
3.563974e-03 -3.280051e-01 -2.339787e+00 77 3 2
2.424081e-01 -3.298636e-01 -2.394271e+00 76 1 0
