ply
format ascii 1.0
element face 0
property list uchar int vertex_indices
element vertex 935
property float x
property float y
property float z
property uchar diffuse_red
property uchar diffuse_green
property uchar diffuse_blue
end_header
2.225393e-02 -5.870429e-01 -1.772556e+00 182 162 125
5.873902e-01 -5.335213e-01 -1.545832e+00 19 18 13
2.380797e+00 9.493464e-01 -2.113937e+00 128 112 79
-1.691590e-01 -6.119834e-01 -1.818571e+00 18 113 20
-1.271153e-01 -5.842810e-01 -1.790509e+00 17 116 20
5.320651e-01 -4.445467e-01 -1.600951e+00 28 26 17
-3.627731e-03 -7.243557e-02 -1.765078e+00 122 70 12
-5.972099e-03 8.873708e-03 -1.763128e+00 156 60 23
7.453293e-02 -2.700322e-01 -1.828496e+00 204 185 147
-7.663368e-02 1.863248e-01 -1.733737e+00 113 96 86
5.907949e-01 -6.000817e-01 -1.555748e+00 38 36 24
2.099224e-03 -5.190957e-01 -1.838341e+00 174 148 111
9.289589e-02 -4.296521e-01 -1.711949e+00 16 11 5
2.380996e-02 1.019595e-01 -1.738952e+00 209 191 153
-1.109988e-01 -5.949777e-01 -1.795027e+00 22 98 18
-6.149024e-02 -5.780572e-01 -1.793478e+00 25 99 20
-2.292757e-02 -5.489987e-01 -1.762106e+00 24 96 22
-4.936342e-02 -5.240267e-01 -1.801591e+00 187 161 116
5.614043e-01 -4.713037e-01 -1.569598e+00 18 18 13
8.552332e-02 -4.964243e-01 -1.852529e+00 122 104 68
1.866104e-01 -3.906529e-01 -1.692093e+00 34 32 19
-3.864818e-01 -4.411349e-01 -2.027240e+00 145 67 28
3.632636e-01 -2.286140e-01 -1.706065e+00 204 186 148
-7.497555e-02 1.183679e-02 -1.746121e+00 182 66 19
-3.358029e-01 -6.911822e-01 -1.847777e+00 15 106 21
-2.900736e-01 -6.756651e-01 -1.842400e+00 18 103 21
-2.450099e-01 -6.565702e-01 -1.831376e+00 21 101 18
6.195557e-01 -5.457706e-01 -1.540041e+00 194 179 140
-1.159425e-01 -5.862580e-01 -1.777799e+00 20 100 18
8.770615e-02 -5.089472e-01 -1.729544e+00 33 42 17
1.735883e-01 -4.664316e-01 -1.701191e+00 0 6 1
7.747616e-02 -4.499068e-01 -1.887525e+00 148 126 86
2.777846e-01 -3.755405e-01 -1.691317e+00 17 15 6
-1.529262e-02 -1.342097e-01 -1.785301e+00 137 76 18
-1.215654e-01 -6.956243e-02 -1.758421e+00 150 88 3
-2.308305e-01 -6.581535e-01 -1.833244e+00 40 101 27
-1.829278e-01 -6.451862e-01 -1.836538e+00 45 102 31
-1.414415e-01 -6.165234e-01 -1.808256e+00 42 98 25
-9.537256e-02 -5.970062e-01 -1.799900e+00 48 102 30
-1.592630e-01 -5.787637e-01 -1.800755e+00 21 98 17
-5.059435e-02 -5.759938e-01 -1.787197e+00 45 100 29
-1.006299e-02 -5.490672e-01 -1.761823e+00 42 92 26
-2.412341e-02 -5.136445e-01 -1.759818e+00 15 91 10
2.711803e-01 -3.732709e-01 -1.674920e+00 18 12 4
-1.700571e-01 2.171381e-02 -1.785660e+00 85 9 2
-4.502031e-01 4.830493e-02 -1.889830e+00 147 59 14
-4.535567e-01 9.983889e-02 -1.884256e+00 50 39 50
-2.287018e-01 1.942111e-01 -1.794989e+00 77 68 87
-3.834820e-01 -6.973039e-01 -1.890158e+00 25 98 26
-2.680280e-01 -6.767938e-01 -1.839399e+00 57 100 36
-2.710903e-01 -6.484788e-01 -1.806270e+00 165 186 122
-2.257366e-01 -6.604383e-01 -1.836272e+00 57 103 32
-1.442525e-01 -6.322696e-01 -1.811622e+00 194 171 129
-2.088171e-01 -5.944302e-01 -1.801187e+00 27 103 25
-1.264417e-02 -5.647712e-01 -1.765637e+00 191 170 127
-1.188326e-01 -5.575420e-01 -1.786545e+00 24 98 22
-7.085201e-02 -5.412420e-01 -1.787190e+00 28 101 27
2.514709e-02 -4.969519e-01 -1.760125e+00 19 96 12
1.143791e-01 -4.633465e-01 -1.691735e+00 163 180 125
1.632559e-01 -4.449611e-01 -1.687701e+00 142 162 108
4.185498e-02 -4.395167e-01 -1.875414e+00 28 3 1
-1.637333e-01 -2.986894e-01 -1.836132e+00 183 108 70
-2.089787e-01 -1.691523e-01 -1.807811e+00 190 133 83
-1.695464e-01 1.897586e-01 -1.775547e+00 92 79 102
-2.003141e-01 1.871618e-01 -1.781044e+00 62 51 73
3.360242e-01 -7.414777e-01 -1.654480e+00 80 76 47
-3.872047e-01 -7.422218e-01 -1.881299e+00 57 73 19
2.343988e-01 -6.382783e-01 -1.622286e+00 62 63 42
-4.074150e-01 -6.959184e-01 -1.868605e+00 34 93 23
-3.841207e-01 -6.834273e-01 -1.846000e+00 165 183 123
-3.854324e-01 -6.911546e-01 -1.860558e+00 165 183 123
-3.809515e-01 -6.863040e-01 -1.867150e+00 26 98 27
-3.258572e-01 -6.631992e-01 -1.819247e+00 205 219 162
-3.650645e-01 -6.783181e-01 -1.863841e+00 28 97 37
-3.405986e-01 -6.765888e-01 -1.878007e+00 25 98 25
-2.822657e-01 -6.626463e-01 -1.843244e+00 194 208 150
1.905088e-01 -6.491270e-01 -1.724084e+00 42 36 19
-2.211591e-01 -6.667807e-01 -1.848323e+00 58 97 32
-1.870614e-01 -6.045392e-01 -1.838340e+00 37 106 45
-5.519500e-02 -5.901673e-01 -1.789678e+00 190 173 123
-1.080402e-01 -5.714927e-01 -1.776302e+00 202 213 158
-1.460938e-01 -5.754902e-01 -1.806171e+00 26 97 27
-1.336247e-02 -5.642827e-01 -1.766727e+00 189 170 122
-1.293253e-01 -5.679393e-01 -1.802331e+00 33 98 31
-5.110163e-02 -5.536691e-01 -1.760964e+00 171 192 131
-6.397018e-02 -5.504854e-01 -1.762607e+00 189 203 143
-9.996718e-02 -5.559004e-01 -1.798781e+00 28 102 31
2.962157e-03 -5.475457e-01 -1.760319e+00 58 83 31
-6.084863e-03 -5.328608e-01 -1.749467e+00 165 182 127
-1.859972e-02 -5.300494e-01 -1.751580e+00 195 206 149
9.570624e-02 -5.307654e-01 -1.769853e+00 119 107 66
-4.514626e-02 -5.197318e-01 -1.760564e+00 39 98 28
3.749846e-02 -5.112692e-01 -1.734220e+00 164 186 127
2.668432e-02 -5.037046e-01 -1.713361e+00 164 186 127
2.512380e-02 -5.086665e-01 -1.737407e+00 196 210 149
7.844963e-02 -4.926330e-01 -1.701840e+00 23 43 17
1.617032e-02 -4.954836e-01 -1.749918e+00 21 95 13
7.103868e-02 -4.879237e-01 -1.725745e+00 199 207 152
5.717556e-01 -4.488248e-01 -1.590442e+00 38 30 15
1.282979e-01 -4.369676e-01 -1.703918e+00 22 95 14
-1.974016e-01 -4.578121e-01 -1.867582e+00 144 80 36
7.081733e-04 -4.400594e-01 -1.826883e+00 16 6 7
7.081733e-04 -4.400594e-01 -1.826883e+00 16 6 7
5.139661e-01 -3.812942e-01 -1.638221e+00 39 32 15
-7.251239e-03 -1.602535e-01 -1.780759e+00 138 21 3
-2.198933e-01 -1.139172e-01 -1.790294e+00 152 87 8
-1.743021e-01 -9.386495e-02 -1.763894e+00 144 86 5
-1.418808e-01 -8.969410e-02 -1.763447e+00 140 82 6
-4.552138e-01 5.100557e-02 -1.895060e+00 142 65 17
-3.158895e-01 1.935360e-01 -1.815611e+00 63 50 77
-3.388934e-01 1.973174e-01 -1.823979e+00 64 51 75
-3.784022e-01 2.031891e-01 -1.836771e+00 68 53 76
-3.559034e-01 2.119232e-01 -1.839784e+00 63 51 75
2.648131e-01 -7.465114e-01 -1.670222e+00 28 22 9
-3.934272e-01 -6.876200e-01 -1.863567e+00 34 88 26
2.353384e-01 -6.109434e-01 -1.618429e+00 21 15 2
-3.007482e-01 -6.435563e-01 -1.823524e+00 198 219 152
-3.077932e-01 -6.565031e-01 -1.860397e+00 34 86 23
3.112632e-01 -5.705480e-01 -1.602139e+00 69 67 53
3.145146e-01 -5.719129e-01 -1.604882e+00 69 67 53
3.750571e-01 -5.338817e-01 -1.590404e+00 83 81 56
3.817559e-01 -5.362086e-01 -1.595193e+00 83 81 56
-1.248303e-01 -5.683475e-01 -1.788400e+00 211 230 161
-1.264262e-01 -5.656599e-01 -1.782077e+00 211 230 161
3.935366e-01 -5.281417e-01 -1.591633e+00 87 82 60
2.646235e-02 -5.388750e-01 -1.748874e+00 146 139 86
5.943926e-01 -5.014646e-01 -1.543457e+00 40 31 14
6.050039e-01 -5.011557e-01 -1.557219e+00 39 31 10
-3.882626e-02 -5.235456e-01 -1.755678e+00 218 236 164
-3.355700e-02 -5.287501e-01 -1.769201e+00 218 236 164
4.697749e-01 -4.713198e-01 -1.560682e+00 81 78 61
4.452100e-01 -4.661177e-01 -1.547100e+00 81 78 61
5.294179e-03 -5.019952e-01 -1.741617e+00 213 230 159
3.760094e-02 -4.735636e-01 -1.706926e+00 210 228 154
5.800887e-01 -4.536935e-01 -1.585620e+00 199 186 141
4.911663e-01 -4.183527e-01 -1.559705e+00 65 54 25
1.082331e-01 -4.376058e-01 -1.693896e+00 16 89 11
2.556959e-01 -3.792419e-01 -1.674890e+00 22 14 1
-2.286968e-01 -4.007556e-01 -1.856073e+00 96 36 7
-2.286968e-01 -4.007556e-01 -1.856073e+00 96 36 7
-1.015783e-01 -3.564982e-01 -1.822606e+00 75 6 5
4.712798e-02 -3.325143e-01 -1.844613e+00 146 94 66
-1.691312e-01 -3.281937e-01 -1.829439e+00 162 86 47
-1.690627e-01 -3.281873e-01 -1.829720e+00 162 86 47
4.975998e-02 -3.109911e-01 -1.814333e+00 208 192 157
-1.010459e-01 -2.949741e-01 -1.829348e+00 70 8 5
-2.888916e-01 -2.818415e-01 -1.851168e+00 96 51 11
-2.888450e-01 -2.817823e-01 -1.850699e+00 96 51 11
4.662110e-01 -2.463640e-01 -1.761527e+00 70 62 29
-3.588722e-01 -2.647330e-01 -1.900810e+00 103 59 14
-3.588722e-01 -2.647330e-01 -1.900810e+00 103 59 14
-1.327911e-01 -2.301837e-01 -1.804660e+00 151 56 20
-3.277760e-01 -2.347261e-01 -1.862848e+00 103 46 9
-3.110254e-01 -1.946959e-01 -1.842620e+00 100 59 0
-4.191341e-01 -1.796644e-01 -1.910040e+00 145 91 44
-1.471056e-01 -1.771002e-01 -1.795658e+00 152 88 17
-1.512366e-01 -1.796494e-01 -1.779772e+00 152 88 17
-3.166987e-01 -1.789565e-01 -1.842105e+00 122 62 4
-8.470708e-02 -1.539658e-01 -1.792798e+00 94 47 5
-5.136577e-02 -1.489142e-01 -1.789136e+00 137 77 10
-1.255988e-01 -1.418823e-01 -1.782087e+00 114 58 39
-8.526654e-02 -1.314788e-01 -1.783625e+00 94 40 11
-3.662132e-01 -1.378776e-01 -1.854947e+00 96 46 0
-3.662132e-01 -1.378776e-01 -1.854947e+00 96 46 0
-9.755885e-02 -1.266808e-01 -1.776101e+00 139 79 6
-9.755885e-02 -1.266808e-01 -1.776101e+00 139 79 6
-8.186222e-02 -1.219483e-01 -1.775280e+00 139 79 8
-8.186222e-02 -1.219483e-01 -1.775280e+00 139 79 8
-8.557261e-02 -1.137943e-01 -1.775594e+00 83 28 1
-2.416049e-01 -1.237375e-01 -1.785962e+00 98 44 11
-2.411403e-01 -1.213474e-01 -1.790750e+00 98 44 11
-1.486912e-01 -1.068657e-01 -1.774189e+00 144 87 13
-1.702364e-01 -1.100712e-01 -1.772129e+00 146 84 10
-1.691294e-01 -1.084009e-01 -1.777061e+00 146 84 10
-3.482629e-01 -8.547720e-02 -1.839246e+00 179 105 71
-1.874852e-01 -8.494754e-02 -1.774553e+00 146 90 8
-3.612938e-01 -8.514107e-02 -1.836373e+00 168 98 62
-4.123094e-02 -6.840782e-02 -1.744636e+00 92 50 10
-3.952975e-02 -6.720764e-02 -1.747584e+00 92 50 10
-3.691998e-01 -6.933059e-02 -1.829928e+00 154 81 41
-4.020791e-01 -5.669232e-02 -1.845107e+00 170 101 62
-1.630853e-01 5.895722e-03 -1.785435e+00 255 239 210
-1.519056e-01 1.823646e-01 -1.762154e+00 65 56 77
-2.593225e-01 1.877492e-01 -1.799323e+00 67 54 78
-2.981468e-01 2.012256e-01 -1.822166e+00 62 50 75
-2.453846e-01 2.076329e-01 -1.809642e+00 115 99 99
-2.453846e-01 2.076329e-01 -1.809642e+00 115 99 99
-2.616719e-01 1.994473e-01 -1.801357e+00 107 92 90
1.471703e+00 6.738603e-01 -1.701997e+00 18 18 0
1.343057e+00 6.749707e-01 -1.725991e+00 121 104 81
2.961782e-01 -7.618892e-01 -1.667547e+00 91 71 43
2.658454e-01 -7.554315e-01 -1.673228e+00 123 114 85
2.533524e-01 -7.402089e-01 -1.674911e+00 23 21 1
2.304132e-01 -7.142965e-01 -1.672209e+00 39 34 15
2.444638e-01 -7.234310e-01 -1.694814e+00 30 24 6
6.414106e-01 -7.082643e-01 -1.593314e+00 170 165 103
-3.884215e-01 -7.468331e-01 -1.901950e+00 148 163 110
-3.866889e-01 -7.386430e-01 -1.886981e+00 148 163 110
6.518110e-01 -6.791383e-01 -1.586674e+00 182 171 118
-4.044585e-01 -7.170058e-01 -1.878223e+00 32 92 15
-4.020865e-01 -7.081983e-01 -1.863228e+00 32 92 15
-2.901701e-01 -6.872705e-01 -1.841994e+00 57 84 13
2.163413e-01 -6.801312e-01 -1.723134e+00 36 29 9
2.388466e-01 -6.180200e-01 -1.614461e+00 18 17 7
2.074176e-01 -6.702679e-01 -1.718764e+00 31 24 6
2.544458e-01 -6.199014e-01 -1.628160e+00 144 141 109
1.989999e-01 -6.580000e-01 -1.720052e+00 27 22 5
2.748630e-01 -6.263323e-01 -1.648521e+00 29 26 7
-2.256131e-01 -6.752329e-01 -1.847092e+00 179 170 113
-2.015504e-01 -6.507047e-01 -1.826372e+00 65 80 12
3.365964e-01 -5.585057e-01 -1.600643e+00 79 76 58
3.465669e-01 -5.627216e-01 -1.608391e+00 79 76 58
-1.488477e-01 -5.852335e-01 -1.789207e+00 26 104 7
6.359611e-01 -5.394112e-01 -1.550404e+00 37 28 3
4.137472e-01 -5.116299e-01 -1.581646e+00 96 93 69
4.137472e-01 -5.116299e-01 -1.581646e+00 96 93 69
4.341685e-01 -4.998159e-01 -1.576653e+00 101 99 72
-4.022802e-02 -5.139526e-01 -1.771806e+00 189 175 140
9.906714e-02 -5.019296e-01 -1.730899e+00 21 35 9
3.114310e-02 -4.815602e-01 -1.707098e+00 16 114 9
1.666041e-02 -4.751811e-01 -1.711250e+00 16 84 19
1.413582e-01 -4.721047e-01 -1.707358e+00 95 112 74
-2.943168e-01 -4.520820e-01 -1.910047e+00 113 53 17
-2.943168e-01 -4.520820e-01 -1.910047e+00 113 53 17
-4.421150e-02 -4.350184e-01 -1.832060e+00 88 2 1
-4.421150e-02 -4.350184e-01 -1.832060e+00 88 2 1
1.666823e-01 -4.125797e-01 -1.696821e+00 228 236 181
-3.168353e-01 -4.383259e-01 -1.889478e+00 106 54 7
-4.408233e-02 -4.317728e-01 -1.865738e+00 87 0 0
-5.927347e-02 -4.249506e-01 -1.825117e+00 87 0 0
-3.156251e-02 -4.262074e-01 -1.861621e+00 78 0 0
-2.420755e-01 -4.228344e-01 -1.873570e+00 156 91 23
-2.420755e-01 -4.228344e-01 -1.873570e+00 156 91 23
-1.143937e-01 -4.125209e-01 -1.850215e+00 98 11 6
-3.444202e-01 -4.259352e-01 -1.956269e+00 104 49 3
-3.429441e-01 -4.236536e-01 -1.941375e+00 104 49 3
-3.611259e-01 -4.181023e-01 -1.930561e+00 172 104 46
-3.611259e-01 -4.181023e-01 -1.930561e+00 172 104 46
-2.926282e-01 -3.965308e-01 -1.889740e+00 107 52 12
-2.353256e-01 -3.774160e-01 -1.842087e+00 146 79 15
-2.348099e-01 -3.786538e-01 -1.851473e+00 146 79 15
-3.471398e-01 -3.811045e-01 -1.919822e+00 112 55 5
-3.471398e-01 -3.811045e-01 -1.919822e+00 112 55 5
-2.448947e-01 -3.511778e-01 -1.857105e+00 153 90 18
-2.446243e-01 -3.515967e-01 -1.862238e+00 153 90 18
-1.127997e-01 -3.461805e-01 -1.825063e+00 79 4 0
-1.127997e-01 -3.461805e-01 -1.825063e+00 79 4 0
-5.688280e-02 -3.429459e-01 -1.816102e+00 75 2 1
-9.173593e-02 -3.446322e-01 -1.841296e+00 75 11 8
-4.907924e-02 -3.393057e-01 -1.806454e+00 71 4 2
-4.907924e-02 -3.393057e-01 -1.806454e+00 71 4 2
-9.852064e-02 -3.374615e-01 -1.786472e+00 67 2 1
-1.115634e-01 -3.379555e-01 -1.821642e+00 142 37 9
-6.852453e-02 -3.384282e-01 -1.845268e+00 71 4 4
-6.676116e-02 -3.391233e-01 -1.849061e+00 71 4 4
-2.957709e-02 -3.302599e-01 -1.800627e+00 74 4 1
-1.389301e-02 -3.259490e-01 -1.811608e+00 76 0 0
-9.208607e-03 -3.270736e-01 -1.822183e+00 76 0 0
-6.043490e-02 -3.201142e-01 -1.834652e+00 80 1 0
-2.415029e-01 -3.224600e-01 -1.847376e+00 152 92 17
-2.415029e-01 -3.224600e-01 -1.847376e+00 152 92 17
-2.484803e-01 -3.222707e-01 -1.853133e+00 150 87 19
-2.482515e-01 -3.223431e-01 -1.855946e+00 150 87 19
-2.623673e-02 -3.102389e-01 -1.778319e+00 80 5 4
-4.832410e-02 -3.110840e-01 -1.800039e+00 74 2 2
-3.229887e-02 -3.058651e-01 -1.803379e+00 79 0 1
-2.508531e-01 -3.077960e-01 -1.848394e+00 155 98 20
-2.507570e-01 -3.079569e-01 -1.849640e+00 155 98 20
-7.482377e-02 -3.018086e-01 -1.833424e+00 81 11 12
-7.496461e-02 -3.014251e-01 -1.833237e+00 81 11 12
-5.475614e-02 -2.948187e-01 -1.830478e+00 70 4 0
-5.444017e-02 -2.945100e-01 -1.833225e+00 70 4 0
-1.290051e-01 -2.911392e-01 -1.812877e+00 140 41 12
-6.271150e-02 -2.882327e-01 -1.799839e+00 137 40 19
-6.271150e-02 -2.882327e-01 -1.799839e+00 137 40 19
-7.967080e-02 -2.871399e-01 -1.795857e+00 73 3 8
-7.967080e-02 -2.871399e-01 -1.795857e+00 73 3 8
-7.108834e-02 -2.834089e-01 -1.798880e+00 74 8 8
-7.336520e-02 -2.834234e-01 -1.791810e+00 74 8 8
-1.396941e-01 -2.844456e-01 -1.804354e+00 70 5 4
-1.349245e-01 -2.839627e-01 -1.824283e+00 70 5 4
-1.043398e-01 -2.808421e-01 -1.820834e+00 76 12 4
-1.043398e-01 -2.808421e-01 -1.820834e+00 76 12 4
-7.169352e-02 -2.755868e-01 -1.792309e+00 138 36 14
-6.229799e-02 -2.720825e-01 -1.780142e+00 136 37 16
-5.817474e-02 -2.664915e-01 -1.819775e+00 81 9 7
-6.386373e-02 -2.672247e-01 -1.804088e+00 81 9 7
-2.094472e-02 -2.640604e-01 -1.801826e+00 72 3 1
-3.592337e-02 -2.630372e-01 -1.789301e+00 131 38 14
-1.391547e-01 -2.638015e-01 -1.804864e+00 162 76 36
-3.531154e-02 -2.585151e-01 -1.826576e+00 75 5 1
-5.670711e-03 -2.554067e-01 -1.798344e+00 73 1 4
-5.238714e-03 -2.554046e-01 -1.799864e+00 73 1 4
4.600233e-01 -2.300538e-01 -1.793612e+00 210 192 154
-3.681737e-01 -2.592769e-01 -1.892708e+00 110 62 11
-3.821882e-01 -2.295441e-01 -1.905696e+00 112 72 4
-2.821838e-01 -2.272945e-01 -1.840078e+00 124 81 29
-2.821838e-01 -2.272945e-01 -1.840078e+00 124 81 29
-3.402090e-02 -2.187891e-01 -1.777691e+00 160 66 38
-3.560057e-01 -2.264546e-01 -1.877544e+00 106 57 1
-2.985457e-01 -2.193932e-01 -1.876193e+00 97 55 6
-2.989190e-01 -2.246292e-01 -1.851345e+00 97 55 6
-3.399505e-01 -2.233219e-01 -1.859629e+00 155 108 27
-3.224300e-01 -2.215203e-01 -1.851302e+00 106 59 4
-3.222830e-01 -2.216498e-01 -1.849505e+00 106 59 4
3.188746e-01 -1.883177e-01 -1.766908e+00 15 7 0
-3.168562e-01 -2.085406e-01 -1.839820e+00 124 69 3
-3.168562e-01 -2.085406e-01 -1.839820e+00 124 69 3
-3.278169e-01 -2.036018e-01 -1.865193e+00 114 58 1
-3.275346e-01 -2.059490e-01 -1.850527e+00 114 58 1
-3.104879e-01 -2.021505e-01 -1.844330e+00 164 108 27
-3.420807e-01 -2.022398e-01 -1.856722e+00 118 60 1
-3.847941e-01 -2.006046e-01 -1.888278e+00 119 78 13
-3.755695e-01 -1.979099e-01 -1.885934e+00 156 103 29
-3.755695e-01 -1.979099e-01 -1.885934e+00 156 103 29
-3.682131e-01 -1.941927e-01 -1.872834e+00 124 69 5
-3.682131e-01 -1.941927e-01 -1.872834e+00 124 69 5
-3.541736e-01 -1.916052e-01 -1.861989e+00 160 110 30
-3.320790e-01 -1.895797e-01 -1.859949e+00 109 64 5
-3.320790e-01 -1.895797e-01 -1.859949e+00 109 64 5
-3.321876e-01 -1.894645e-01 -1.861849e+00 109 64 5
-3.695622e-01 -1.855486e-01 -1.872121e+00 164 117 36
-3.757445e-01 -1.840033e-01 -1.874214e+00 160 108 32
-9.369162e-02 -1.735711e-01 -1.774414e+00 90 33 8
-8.881589e-02 -1.707179e-01 -1.790271e+00 90 33 8
-1.397497e-01 -1.756323e-01 -1.783300e+00 147 93 16
-1.588619e-01 -1.745951e-01 -1.798666e+00 152 89 14
-3.718071e-01 -1.764989e-01 -1.880714e+00 99 59 4
-3.320920e-01 -1.758617e-01 -1.846610e+00 119 64 3
-1.562768e-01 -1.705156e-01 -1.787700e+00 98 37 4
-6.869372e-02 -1.653620e-01 -1.775708e+00 92 38 16
-6.322807e-02 -1.623862e-01 -1.791837e+00 92 38 16
-8.908685e-02 -1.631526e-01 -1.788225e+00 134 77 6
-8.908685e-02 -1.631526e-01 -1.788225e+00 134 77 6
-3.553860e-01 -1.694518e-01 -1.858922e+00 115 63 1
-6.326368e-02 -1.545480e-01 -1.790105e+00 137 78 15
-6.316845e-02 -1.543387e-01 -1.790487e+00 137 78 15
-3.773455e-01 -1.621323e-01 -1.864928e+00 119 67 3
-7.093548e-02 -1.498943e-01 -1.788973e+00 75 23 6
-7.073968e-02 -1.499678e-01 -1.788983e+00 75 23 6
-3.631165e-01 -1.524896e-01 -1.863728e+00 112 66 1
-3.803783e-01 -1.539262e-01 -1.865912e+00 160 115 30
-1.210669e-02 -1.381075e-01 -1.773947e+00 81 28 5
-1.707248e-01 -1.484805e-01 -1.785732e+00 100 45 21
-2.295263e-01 -1.474766e-01 -1.801185e+00 158 102 20
-2.399861e-01 -1.486774e-01 -1.799578e+00 153 100 16
-3.065935e-02 -1.341616e-01 -1.767402e+00 94 41 19
-1.536620e-01 -1.393196e-01 -1.778402e+00 147 87 11
-1.035762e-01 -1.364274e-01 -1.768374e+00 78 18 1
-1.031861e-01 -1.362242e-01 -1.769585e+00 78 18 1
-1.432199e-01 -1.386628e-01 -1.769927e+00 149 90 14
-1.432199e-01 -1.386628e-01 -1.769927e+00 149 90 14
-1.287819e-01 -1.352726e-01 -1.775281e+00 147 88 8
-1.029324e-01 -1.275433e-01 -1.778009e+00 143 84 9
-3.615124e-01 -1.313032e-01 -1.851298e+00 169 118 34
-8.585817e-02 -1.227571e-01 -1.776490e+00 138 78 8
-8.472093e-02 -1.219112e-01 -1.780342e+00 138 78 8
-6.962751e-02 -1.166545e-01 -1.780635e+00 142 81 14
-7.138716e-02 -1.178519e-01 -1.775480e+00 142 81 14
-1.635660e-01 -1.259247e-01 -1.778118e+00 148 89 12
-1.635660e-01 -1.259247e-01 -1.778118e+00 148 89 12
-3.941669e-01 -1.260800e-01 -1.866360e+00 113 65 9
-1.482694e-01 -1.238238e-01 -1.774030e+00 152 91 12
-1.488872e-01 -1.244169e-01 -1.771551e+00 152 91 12
-3.882496e-01 -1.213239e-01 -1.867510e+00 156 111 39
-8.216742e-02 -1.163308e-01 -1.761637e+00 106 51 19
-8.216742e-02 -1.163308e-01 -1.761637e+00 106 51 19
-2.667985e-02 -1.085332e-01 -1.755372e+00 110 59 4
-2.667985e-02 -1.085332e-01 -1.755372e+00 110 59 4
-3.871591e-01 -1.158651e-01 -1.859594e+00 109 64 5
-3.871591e-01 -1.158651e-01 -1.859594e+00 109 64 5
-1.407197e-01 -1.136741e-01 -1.768525e+00 93 35 15
-1.401760e-01 -1.130101e-01 -1.772116e+00 93 35 15
-1.601166e-01 -1.084224e-01 -1.773365e+00 146 88 6
-4.260014e-02 -1.005799e-01 -1.754178e+00 100 43 1
-4.506393e-02 -1.024859e-01 -1.747629e+00 100 43 1
-4.390004e-02 -1.017761e-01 -1.750654e+00 100 43 1
-2.520256e-02 -9.146343e-02 -1.758289e+00 108 57 6
-2.903837e-02 -9.481734e-02 -1.748928e+00 108 57 6
-2.912605e-01 -1.107844e-01 -1.786713e+00 143 45 9
-3.154957e-01 -1.025167e-01 -1.820608e+00 147 45 11
-2.966879e-01 -9.789559e-02 -1.810216e+00 156 81 44
-8.512651e-03 -7.954285e-02 -1.759966e+00 107 54 4
-4.475889e-02 -8.634153e-02 -1.749726e+00 92 36 0
-4.502957e-02 -8.657744e-02 -1.748931e+00 92 36 0
-4.006345e-01 -9.113151e-02 -1.861229e+00 106 57 0
-3.295618e-01 -9.507559e-02 -1.814724e+00 156 86 52
-9.728906e-02 -7.951742e-02 -1.773397e+00 93 43 31
-2.583078e-02 -7.606771e-02 -1.757224e+00 111 62 13
-4.477421e-02 -7.739990e-02 -1.751210e+00 149 95 24
-1.692934e-01 -8.392676e-02 -1.762935e+00 76 21 6
-1.498481e-01 -8.150547e-02 -1.759246e+00 99 48 15
-4.822417e-02 -6.836789e-02 -1.758787e+00 94 50 11
-4.822417e-02 -6.836789e-02 -1.758787e+00 94 50 11
-3.879820e-01 -7.887254e-02 -1.844047e+00 165 92 51
-1.787121e-01 -7.887644e-02 -1.760451e+00 170 108 21
-1.781746e-01 -7.822050e-02 -1.761856e+00 170 108 21
-4.429677e-01 -3.338095e-02 -1.894970e+00 148 108 63
2.785588e-02 2.222273e-02 -1.767766e+00 163 108 65
-2.893166e-01 1.876847e-01 -1.805880e+00 63 51 71
-1.876185e-01 1.946092e-01 -1.782281e+00 59 50 68
-8.514661e-02 2.034242e-01 -1.760843e+00 54 37 43
-1.374377e-01 1.951950e-01 -1.764361e+00 116 103 95
-1.493153e-01 2.042058e-01 -1.779286e+00 119 99 98
-1.587955e-01 2.002645e-01 -1.775642e+00 115 100 97
-1.040553e-01 2.026268e-01 -1.760549e+00 53 40 56
-1.042263e-01 2.017596e-01 -1.759029e+00 53 40 56
-2.125401e-01 2.022941e-01 -1.792367e+00 111 98 98
-2.120669e-01 2.055690e-01 -1.796855e+00 111 98 98
2.689145e+00 9.334786e-01 -1.816762e+00 69 62 54
2.800816e-01 -7.643319e-01 -1.673022e+00 45 27 3
3.136950e-01 -7.634827e-01 -1.666501e+00 66 65 46
3.097205e-01 -7.658635e-01 -1.671060e+00 64 57 36
3.233337e-01 -7.545215e-01 -1.660221e+00 67 68 52
3.620001e-01 -7.058340e-01 -1.644138e+00 85 86 72
2.508753e-01 -6.887699e-01 -1.648592e+00 53 55 44
-3.641674e-01 -7.327543e-01 -1.871229e+00 69 69 21
6.569545e-01 -6.859920e-01 -1.596450e+00 79 74 55
-3.408848e-01 -7.082614e-01 -1.857352e+00 148 165 109
-3.408848e-01 -7.082614e-01 -1.857352e+00 148 165 109
-3.252490e-01 -7.023861e-01 -1.846633e+00 141 156 98
-3.850314e-01 -7.023361e-01 -1.869955e+00 53 110 53
-3.004908e-01 -7.055799e-01 -1.870070e+00 68 86 34
-4.106252e-01 -6.935570e-01 -1.879384e+00 199 192 160
6.452437e-01 -6.520216e-01 -1.582342e+00 41 36 3
-2.826598e-01 -6.797437e-01 -1.830147e+00 154 157 95
2.448152e-01 -6.120873e-01 -1.612889e+00 30 25 10
2.409539e-01 -6.171130e-01 -1.633900e+00 87 85 73
-2.541639e-01 -6.648265e-01 -1.828789e+00 162 174 117
-2.267007e-01 -6.725064e-01 -1.842800e+00 178 172 112
-2.890290e-01 -6.663346e-01 -1.844887e+00 40 101 45
2.415036e-01 -6.172118e-01 -1.642196e+00 72 73 57
2.409757e-01 -6.168468e-01 -1.641614e+00 72 73 57
-1.418410e-01 -6.234155e-01 -1.811040e+00 62 85 7
3.330096e-01 -5.734358e-01 -1.613369e+00 74 72 59
3.431282e-01 -5.527844e-01 -1.598095e+00 82 81 61
3.525592e-01 -5.564323e-01 -1.605266e+00 82 81 61
6.373588e-01 -5.267635e-01 -1.550057e+00 83 75 27
1.067498e-02 -5.461418e-01 -1.759730e+00 60 68 13
-9.333702e-02 -5.432350e-01 -1.776094e+00 27 80 19
4.263245e-01 -5.058399e-01 -1.579664e+00 94 89 68
4.263245e-01 -5.058399e-01 -1.579664e+00 94 89 68
1.203941e-01 -5.441112e-01 -1.775909e+00 27 18 2
-4.600786e-02 -5.270267e-01 -1.774554e+00 28 82 22
5.636927e-02 -5.176035e-01 -1.741132e+00 133 144 97
5.221955e-02 -5.148019e-01 -1.733756e+00 133 144 97
-6.291876e-03 -5.023644e-01 -1.759766e+00 221 235 192
1.131492e-01 -4.887689e-01 -1.722019e+00 8 40 5
8.022933e-02 -4.825597e-01 -1.725851e+00 27 99 5
3.107672e-02 -4.759631e-01 -1.722792e+00 22 75 9
3.582251e-02 -4.790318e-01 -1.741074e+00 216 232 181
1.285174e-01 -4.663803e-01 -1.714610e+00 179 201 136
8.041784e-02 -4.569743e-01 -1.727699e+00 219 240 183
1.861045e-01 -4.506418e-01 -1.694476e+00 81 95 65
1.251246e-01 -4.315252e-01 -1.690546e+00 17 75 0
4.839615e-01 -4.125752e-01 -1.563018e+00 65 52 27
1.306689e-01 -4.245034e-01 -1.685172e+00 22 70 2
-2.267890e-01 -4.574695e-01 -1.881381e+00 97 38 0
6.583691e-02 -4.531278e-01 -1.828496e+00 130 110 81
-8.953160e-02 -4.501439e-01 -1.842477e+00 83 3 0
-8.953160e-02 -4.501439e-01 -1.842477e+00 83 3 0
-2.848432e-01 -4.513282e-01 -1.896755e+00 98 31 2
-6.164878e-02 -4.433781e-01 -1.843485e+00 95 5 3
-5.837330e-02 -4.456928e-01 -1.852138e+00 95 5 3
-1.072457e-01 -4.444066e-01 -1.862551e+00 85 1 1
-1.110479e-01 -4.415416e-01 -1.848537e+00 85 1 1
1.726468e-01 -4.153372e-01 -1.697126e+00 11 70 14
-3.096969e-01 -4.458210e-01 -1.911364e+00 92 38 1
-3.120523e-01 -4.389295e-01 -1.912190e+00 157 93 32
-3.120523e-01 -4.389295e-01 -1.912190e+00 157 93 32
-3.217449e-01 -4.378029e-01 -1.922946e+00 159 99 36
-3.215800e-01 -4.370246e-01 -1.919767e+00 159 99 36
-3.305134e-01 -4.324295e-01 -1.916770e+00 157 93 29
-3.305134e-01 -4.324295e-01 -1.916770e+00 157 93 29
-3.206411e-01 -4.295003e-01 -1.914272e+00 98 42 0
-3.206533e-01 -4.295912e-01 -1.912712e+00 98 42 0
-3.475612e-01 -4.342902e-01 -1.937613e+00 110 47 0
-3.489483e-01 -4.385342e-01 -1.960973e+00 110 47 0
-2.272841e-01 -4.215694e-01 -1.861437e+00 148 81 23
-3.372791e-02 -4.164674e-01 -1.823257e+00 84 0 0
-3.195469e-02 -4.167174e-01 -1.828193e+00 84 0 0
2.123211e-01 -3.959972e-01 -1.686431e+00 155 116 55
-7.552969e-02 -4.166744e-01 -1.836914e+00 99 2 2
-7.643598e-02 -4.161068e-01 -1.834098e+00 99 2 2
-3.349018e-01 -4.240294e-01 -1.917223e+00 102 43 2
-3.349514e-01 -4.240499e-01 -1.917964e+00 102 43 2
-1.778454e-02 -4.099343e-01 -1.809389e+00 113 30 18
-3.511404e-01 -4.238117e-01 -1.931186e+00 158 104 42
2.274816e-01 -3.872267e-01 -1.668255e+00 165 129 66
-5.375850e-02 -4.105498e-01 -1.841655e+00 84 0 1
-5.375850e-02 -4.105498e-01 -1.841655e+00 84 0 1
-5.190042e-02 -4.116583e-01 -1.845949e+00 84 0 1
-3.162555e-01 -4.159667e-01 -1.899410e+00 95 27 0
-3.161726e-01 -4.164644e-01 -1.902993e+00 95 27 0
-3.359890e-01 -4.179142e-01 -1.920570e+00 155 97 31
-3.359890e-01 -4.179142e-01 -1.920570e+00 155 97 31
-7.070104e-02 -4.050939e-01 -1.827666e+00 139 40 18
-7.036778e-02 -4.052532e-01 -1.828026e+00 139 40 18
-2.292780e-01 -4.075103e-01 -1.856946e+00 144 75 9
-3.541588e-01 -4.153949e-01 -1.926811e+00 111 56 3
-3.359325e-01 -4.097396e-01 -1.910346e+00 110 50 2
-3.359325e-01 -4.097396e-01 -1.910346e+00 110 50 2
-5.218220e-02 -3.951885e-01 -1.809761e+00 133 30 14
-5.218220e-02 -3.951885e-01 -1.809761e+00 133 30 14
-3.543408e-01 -4.099578e-01 -1.932154e+00 158 101 37
-3.541480e-01 -4.099073e-01 -1.930512e+00 158 101 37
-5.534981e-02 -3.967502e-01 -1.837719e+00 86 0 0
-3.484933e-01 -4.051930e-01 -1.920218e+00 114 54 4
-3.484604e-01 -4.051942e-01 -1.920516e+00 114 54 4
4.852655e-01 -3.688589e-01 -1.630926e+00 36 29 9
-1.753728e-02 -3.951871e-01 -1.858055e+00 135 40 23
-1.752653e-02 -3.950684e-01 -1.857190e+00 135 40 23
-2.833034e-01 -3.960460e-01 -1.879182e+00 96 33 0
-2.833386e-01 -3.963503e-01 -1.878844e+00 96 33 0
-2.832160e-01 -3.973207e-01 -1.887202e+00 96 33 0
-2.322920e-01 -3.928678e-01 -1.855903e+00 147 80 19
-3.281305e-02 -3.868807e-01 -1.828654e+00 88 0 0
-2.369531e-01 -3.852784e-01 -1.858241e+00 83 21 0
-2.364371e-01 -3.864592e-01 -1.866038e+00 83 21 0
-1.969991e-01 -3.828097e-01 -1.845770e+00 118 41 1
-2.338757e-01 -3.795226e-01 -1.857091e+00 146 79 16
-2.510426e-01 -3.798195e-01 -1.864203e+00 154 91 23
-2.510426e-01 -3.798195e-01 -1.864203e+00 154 91 23
-3.527852e-01 -3.775106e-01 -1.917094e+00 109 56 1
-3.527450e-01 -3.772250e-01 -1.915835e+00 109 56 1
-9.840881e-02 -3.556738e-01 -1.817342e+00 73 1 0
-9.704738e-02 -3.550793e-01 -1.820965e+00 73 1 0
-9.529783e-02 -3.565239e-01 -1.828031e+00 73 1 0
-3.220045e-01 -3.604971e-01 -1.891656e+00 105 35 0
-2.003062e-01 -3.546759e-01 -1.843040e+00 111 43 1
-7.801954e-02 -3.501235e-01 -1.814668e+00 66 2 1
-7.769997e-02 -3.502503e-01 -1.815475e+00 66 2 1
-2.592125e-01 -3.548102e-01 -1.862229e+00 104 34 0
-2.592125e-01 -3.548102e-01 -1.862229e+00 104 34 0
-3.283599e-01 -3.592350e-01 -1.898445e+00 104 46 1
-3.283599e-01 -3.592350e-01 -1.898445e+00 104 46 1
-9.174140e-02 -3.506732e-01 -1.825954e+00 138 39 22
-2.117723e-01 -3.517933e-01 -1.850454e+00 153 89 17
-2.116275e-01 -3.518092e-01 -1.852719e+00 153 89 17
-3.375672e-01 -3.570552e-01 -1.907311e+00 100 40 0
-3.369667e-01 -3.568515e-01 -1.900705e+00 100 40 0
-1.305413e-01 -3.479747e-01 -1.819278e+00 88 8 4
-1.292573e-01 -3.480702e-01 -1.824591e+00 88 8 4
-3.654781e-01 -3.578008e-01 -1.924666e+00 109 47 1
-3.361111e-01 -3.513874e-01 -1.907237e+00 154 94 23
-1.065419e-01 -3.428623e-01 -1.820015e+00 71 5 1
-1.191306e-01 -3.397149e-01 -1.818359e+00 146 48 16
-1.898714e-01 -3.406198e-01 -1.832015e+00 178 119 73
5.044459e-01 -3.240038e-01 -1.700095e+00 38 26 12
-6.692125e-02 -3.366527e-01 -1.829786e+00 72 3 3
-7.114407e-02 -3.356126e-01 -1.817358e+00 72 3 3
-2.615978e-01 -3.394848e-01 -1.849586e+00 99 31 1
-2.615978e-01 -3.394848e-01 -1.849586e+00 99 31 1
-2.141466e-01 -3.372781e-01 -1.841490e+00 159 94 25
-1.175429e-01 -3.322490e-01 -1.820632e+00 83 3 0
-8.966653e-02 -3.303301e-01 -1.797051e+00 135 37 20
-3.735929e-02 -3.298836e-01 -1.813530e+00 129 33 19
-3.735929e-02 -3.298836e-01 -1.813530e+00 129 33 19
-6.587075e-02 -3.312706e-01 -1.843250e+00 131 32 9
-6.650411e-02 -3.305443e-01 -1.842401e+00 131 32 9
-5.061779e-02 -3.290923e-01 -1.816284e+00 80 0 5
-5.061779e-02 -3.290923e-01 -1.816284e+00 80 0 5
-8.653093e-02 -3.278299e-01 -1.834005e+00 72 0 0
-8.618049e-02 -3.278189e-01 -1.835438e+00 72 0 0
-4.149457e-02 -3.248459e-01 -1.816895e+00 66 0 4
-4.392377e-02 -3.215397e-01 -1.790230e+00 76 5 6
-4.392377e-02 -3.215397e-01 -1.790230e+00 76 5 6
-1.609472e-01 -3.251430e-01 -1.833318e+00 143 35 4
-1.609472e-01 -3.251430e-01 -1.833318e+00 143 35 4
-2.038078e-01 -3.256188e-01 -1.835089e+00 123 56 4
-2.039813e-01 -3.254676e-01 -1.833302e+00 123 56 4
-2.038078e-01 -3.256188e-01 -1.835089e+00 123 56 4
-1.452967e-02 -3.205094e-01 -1.845895e+00 78 1 5
-2.502873e-02 -3.116807e-01 -1.809896e+00 135 38 22
-2.405545e-02 -3.118102e-01 -1.812797e+00 135 38 22
-2.470471e-01 -3.136983e-01 -1.846367e+00 84 26 0
2.114920e-02 -3.069286e-01 -1.797672e+00 116 24 0
-2.224374e-01 -3.088224e-01 -1.848589e+00 156 97 21
-2.425443e-01 -3.084512e-01 -1.838351e+00 156 99 23
-2.884439e-03 -3.007269e-01 -1.793851e+00 78 0 1
-2.884439e-03 -3.007269e-01 -1.793851e+00 78 0 1
-1.916513e-02 -3.007290e-01 -1.806240e+00 79 0 1
-2.609773e-01 -3.073287e-01 -1.853228e+00 158 99 23
-5.925377e-03 -2.966436e-01 -1.795677e+00 129 38 21
-5.593859e-03 -2.965173e-01 -1.796092e+00 129 38 21
-7.401091e-02 -2.981093e-01 -1.799684e+00 70 4 0
-7.312331e-02 -2.981161e-01 -1.802173e+00 70 4 0
-1.340086e-01 -2.980783e-01 -1.808507e+00 78 3 4
-8.198671e-03 -2.929217e-01 -1.801983e+00 67 0 0
-8.198671e-03 -2.929217e-01 -1.801983e+00 67 0 0
-5.695682e-02 -2.933227e-01 -1.799233e+00 67 3 1
-7.496732e-02 -2.938156e-01 -1.825565e+00 136 40 19
-7.129844e-02 -2.912797e-01 -1.805463e+00 133 40 24
-7.285558e-02 -2.913623e-01 -1.800717e+00 133 40 24
4.283685e-01 -2.770299e-01 -1.700682e+00 38 29 3
9.841443e-04 -2.866187e-01 -1.802107e+00 82 0 1
-1.010620e-02 -2.869608e-01 -1.776587e+00 82 0 1
-4.033727e-02 -2.856409e-01 -1.791173e+00 77 0 0
-4.195050e-02 -2.857600e-01 -1.787366e+00 77 0 0
-1.102884e-01 -2.872828e-01 -1.805371e+00 137 39 14
-1.102884e-01 -2.872828e-01 -1.805371e+00 137 39 14
1.156247e-01 -2.781351e-01 -1.808261e+00 49 39 30
-9.460250e-02 -2.836582e-01 -1.800025e+00 141 37 21
-1.283021e-01 -2.837319e-01 -1.801202e+00 78 8 9
-1.283021e-01 -2.837319e-01 -1.801202e+00 78 8 9
-8.691445e-02 -2.808315e-01 -1.791979e+00 135 33 11
-8.691445e-02 -2.808315e-01 -1.791979e+00 135 33 11
-5.192075e-02 -2.783273e-01 -1.805149e+00 77 5 2
-5.809428e-02 -2.787678e-01 -1.787813e+00 77 5 2
-2.800778e-01 -2.826346e-01 -1.850905e+00 76 28 3
-4.520443e-02 -2.666540e-01 -1.787535e+00 136 33 12
-4.520443e-02 -2.666540e-01 -1.787535e+00 136 33 12
-3.444409e-02 -2.631883e-01 -1.794328e+00 132 38 14
-3.395095e-01 -2.710801e-01 -1.900850e+00 83 28 0
-3.390605e-01 -2.715027e-01 -1.886636e+00 83 28 0
4.206668e-03 -2.584405e-01 -1.839021e+00 74 2 0
4.206668e-03 -2.584405e-01 -1.839021e+00 74 2 0
-4.341791e-02 -2.584606e-01 -1.781166e+00 65 1 0
4.492411e-01 -2.403769e-01 -1.759603e+00 15 5 0
-1.846946e-02 -2.546738e-01 -1.790587e+00 127 36 17
-1.846946e-02 -2.546738e-01 -1.790587e+00 127 36 17
-1.202267e-01 -2.546840e-01 -1.800430e+00 137 29 1
-3.812613e-01 -2.515164e-01 -1.909139e+00 123 70 4
3.010074e-02 -2.338974e-01 -1.787632e+00 146 109 60
-2.138365e-01 -2.422691e-01 -1.821825e+00 78 12 0
-2.248835e-01 -2.420827e-01 -1.817118e+00 83 24 1
-2.250021e-01 -2.421823e-01 -1.816391e+00 83 24 1
1.914560e-01 -2.255456e-01 -1.734146e+00 40 34 22
-9.280846e-02 -2.218919e-01 -1.787435e+00 161 65 31
-9.279746e-02 -2.219503e-01 -1.787668e+00 161 65 31
-3.745344e-01 -2.267984e-01 -1.887659e+00 157 109 33
-3.400206e-02 -2.187889e-01 -1.777682e+00 161 67 39
-1.668696e-01 -2.211172e-01 -1.800910e+00 179 90 53
-1.667688e-01 -2.211562e-01 -1.801123e+00 179 90 53
-1.173360e-01 -2.149973e-01 -1.788128e+00 165 72 38
-2.875411e-01 -2.044957e-01 -1.865977e+00 114 54 0
-3.812759e-01 -2.088523e-01 -1.899457e+00 163 119 41
-3.813397e-01 -2.088276e-01 -1.899318e+00 163 119 41
-2.400843e-01 -2.056869e-01 -1.824542e+00 151 103 25
-4.078386e-01 -2.023395e-01 -1.907226e+00 127 56 12
-1.229015e-01 -1.964824e-01 -1.781189e+00 174 121 76
-3.238679e-01 -1.935922e-01 -1.847183e+00 101 60 3
-3.245400e-01 -1.857754e-01 -1.849515e+00 155 105 25
-3.685893e-01 -1.862914e-01 -1.869205e+00 164 117 36
-3.459982e-01 -1.784470e-01 -1.868351e+00 148 100 21
4.558809e-03 -1.660439e-01 -1.788380e+00 163 78 41
-1.414714e-01 -1.763153e-01 -1.784175e+00 152 97 21
-7.699427e-02 -1.687057e-01 -1.775328e+00 84 29 5
-7.699427e-02 -1.687057e-01 -1.775328e+00 84 29 5
-9.939157e-02 -1.657124e-01 -1.794351e+00 148 88 22
-7.896602e-02 -1.596702e-01 -1.789547e+00 140 79 13
-3.347811e-01 -1.655327e-01 -1.860521e+00 159 107 24
-7.523100e-02 -1.596389e-01 -1.776283e+00 136 77 17
-7.639302e-02 -1.601344e-01 -1.773671e+00 136 77 17
-6.687705e-02 -1.577083e-01 -1.765479e+00 143 83 13
-6.698156e-02 -1.577805e-01 -1.765245e+00 143 83 13
-3.537777e-01 -1.630472e-01 -1.855993e+00 159 110 29
-5.815622e-02 -1.456933e-01 -1.789539e+00 81 18 5
-6.406133e-02 -1.490125e-01 -1.772592e+00 81 18 5
-3.101667e-02 -1.419403e-01 -1.792894e+00 144 85 25
-2.115477e-02 -1.434642e-01 -1.769604e+00 78 17 0
-2.115477e-02 -1.434642e-01 -1.769604e+00 78 17 0
-3.159368e-02 -1.424203e-01 -1.765399e+00 132 73 14
-3.159368e-02 -1.424203e-01 -1.765399e+00 132 73 14
-3.738142e-01 -1.500457e-01 -1.860720e+00 120 79 5
-3.537436e-02 -1.358089e-01 -1.790354e+00 75 19 4
-2.215137e-02 -1.373166e-01 -1.768547e+00 136 75 19
-2.198802e-02 -1.370989e-01 -1.769166e+00 136 75 19
-3.823978e-01 -1.393307e-01 -1.863166e+00 157 106 32
-1.210910e-01 -1.339738e-01 -1.771942e+00 147 86 19
-1.057719e-01 -1.295488e-01 -1.769251e+00 142 83 7
-1.053320e-01 -1.292202e-01 -1.770499e+00 142 83 7
-2.130594e-01 -1.347369e-01 -1.786929e+00 185 117 62
-3.309192e-01 -1.334925e-01 -1.828263e+00 90 39 0
-3.705623e-01 -1.284681e-01 -1.853219e+00 160 112 36
-3.484901e-01 -1.279282e-01 -1.835837e+00 93 45 0
-3.483339e-01 -1.297938e-01 -1.835918e+00 93 45 0
-3.780411e-01 -1.255395e-01 -1.859192e+00 164 117 40
-3.779114e-01 -1.263605e-01 -1.856500e+00 164 117 40
-2.270025e-01 -1.232421e-01 -1.798354e+00 65 0 1
-2.270025e-01 -1.232421e-01 -1.798354e+00 65 0 1
-2.537651e-01 -1.135635e-01 -1.790485e+00 173 121 49
-2.988644e-01 -1.066839e-01 -1.803053e+00 144 43 9
-3.078176e-01 -1.025110e-01 -1.818495e+00 144 44 10
-4.602634e-02 -9.521374e-02 -1.745905e+00 151 98 23
-2.564803e-02 -8.456989e-02 -1.758351e+00 157 103 34
-3.749597e-01 -9.397510e-02 -1.847947e+00 178 134 74
-3.810410e-01 -9.181673e-02 -1.841665e+00 180 133 66
-3.839748e-01 -8.682573e-02 -1.867854e+00 180 133 66
-3.678400e-01 -9.242375e-02 -1.837359e+00 147 49 17
-3.942008e-01 -8.867215e-02 -1.852170e+00 180 129 69
-3.853782e-01 -8.508970e-02 -1.850998e+00 147 50 15
-3.931406e-01 -8.271668e-02 -1.852656e+00 148 57 15
-4.010649e-01 -7.941259e-02 -1.853515e+00 146 61 16
-4.010649e-01 -7.941259e-02 -1.853515e+00 146 61 16
-1.622618e-01 -7.516466e-02 -1.758733e+00 170 119 42
-1.534501e-01 -7.384640e-02 -1.757092e+00 176 126 57
-1.332987e-01 -6.779762e-02 -1.759062e+00 177 130 68
-2.999144e-02 -3.349104e-02 -1.733309e+00 177 124 61
4.297786e-03 4.167034e-02 -1.736898e+00 134 23 0
-4.584715e-01 8.923427e-02 -1.899052e+00 222 197 160
-1.670620e-01 1.816067e-01 -1.768795e+00 60 47 65
-1.197868e-01 1.782698e-01 -1.742751e+00 55 40 56
-1.427792e-01 1.950060e-01 -1.773435e+00 57 44 63
-1.725546e-01 1.953597e-01 -1.777897e+00 56 44 63
-9.249064e-02 1.886097e-01 -1.742632e+00 53 36 42
-9.272144e-02 1.877136e-01 -1.740913e+00 53 36 42
-8.936917e-02 1.967511e-01 -1.753369e+00 53 36 42
-1.481454e-01 1.848517e-01 -1.750583e+00 119 105 97
-1.481454e-01 1.848517e-01 -1.750583e+00 119 105 97
-2.497842e-02 1.888826e-01 -1.714432e+00 121 106 108
-1.918597e-01 2.053631e-01 -1.789591e+00 114 100 99
-1.940296e-01 1.963639e-01 -1.776581e+00 114 100 99
-1.024977e-02 1.985226e-01 -1.723988e+00 34 20 28
-1.102950e-02 1.964268e-01 -1.720140e+00 34 20 28
-4.287309e-01 2.492451e-01 -1.882937e+00 100 86 91
2.663821e-01 -7.565757e-01 -1.665723e+00 103 87 60
5.342387e-01 -7.413439e-01 -1.621079e+00 39 33 10
2.479656e-01 -7.059407e-01 -1.650601e+00 44 44 34
6.439044e-01 -7.089974e-01 -1.597673e+00 32 29 0
-3.699614e-01 -7.339287e-01 -1.878138e+00 133 154 99
-3.687363e-01 -7.280119e-01 -1.868423e+00 133 154 99
-3.439916e-01 -7.105761e-01 -1.855649e+00 64 92 44
-3.370507e-01 -7.147674e-01 -1.863818e+00 58 77 29
-4.084656e-01 -7.134077e-01 -1.882088e+00 215 227 165
-3.951898e-01 -7.097899e-01 -1.874997e+00 24 106 19
-3.973484e-01 -7.022772e-01 -1.862654e+00 158 219 137
-3.931646e-01 -7.058289e-01 -1.875107e+00 74 161 68
2.467038e-01 -6.426617e-01 -1.635878e+00 69 68 51
2.470043e-01 -6.427165e-01 -1.636096e+00 69 68 51
-2.934370e-01 -7.043789e-01 -1.870088e+00 62 78 20
-2.934370e-01 -7.043789e-01 -1.870088e+00 62 78 20
2.707457e-01 -6.433153e-01 -1.655488e+00 34 31 16
2.767813e-01 -6.326740e-01 -1.636470e+00 84 81 74
2.498411e-01 -6.265620e-01 -1.633605e+00 98 94 67
2.882388e-01 -5.746910e-01 -1.617301e+00 72 70 58
2.871938e-01 -5.741091e-01 -1.616308e+00 72 70 58
-2.057616e-01 -6.068180e-01 -1.799806e+00 63 83 15
2.508998e-01 -5.624117e-01 -1.639409e+00 88 86 73
2.211259e-01 -5.557645e-01 -1.644956e+00 22 19 10
2.303294e-01 -5.583670e-01 -1.657842e+00 78 75 59
-1.596178e-01 -5.540335e-01 -1.728955e+00 136 223 128
-1.426287e-01 -5.873108e-01 -1.807815e+00 136 223 128
2.159958e-01 -5.541775e-01 -1.660094e+00 64 62 47
2.146373e-01 -5.563529e-01 -1.669259e+00 77 75 62
-1.196528e-01 -5.765421e-01 -1.794960e+00 46 93 40
1.769852e-01 -5.512372e-01 -1.690018e+00 15 13 2
-1.483305e-01 -5.651114e-01 -1.797702e+00 205 195 160
6.045573e-01 -5.062293e-01 -1.553464e+00 70 63 53
3.590015e-02 -5.358677e-01 -1.754879e+00 52 73 11
-5.474500e-02 -5.372525e-01 -1.777803e+00 53 144 46
-5.238783e-02 -5.289382e-01 -1.764969e+00 97 170 81
-5.006752e-02 -5.250133e-01 -1.775251e+00 206 222 179
6.220865e-02 -5.203690e-01 -1.742084e+00 36 47 5
6.100350e-02 -5.195206e-01 -1.739708e+00 36 47 5
-4.127333e-02 -5.215749e-01 -1.777092e+00 58 87 35
2.047001e-01 -4.974164e-01 -1.673274e+00 51 48 41
1.957948e-02 -5.066981e-01 -1.747145e+00 61 75 14
-1.968475e-02 -5.028874e-01 -1.753602e+00 54 96 44
-3.413677e-03 -5.029106e-01 -1.756012e+00 23 67 14
1.049045e-01 -4.977053e-01 -1.725724e+00 15 31 1
-7.859760e-04 -4.968942e-01 -1.754628e+00 50 94 30
4.127489e-02 -4.815668e-01 -1.761386e+00 109 99 52
1.051587e-01 -4.676815e-01 -1.726152e+00 52 98 35
1.074075e-01 -4.625684e-01 -1.717054e+00 59 77 20
8.079454e-02 -4.572221e-01 -1.720812e+00 27 75 19
5.730869e-01 -4.414887e-01 -1.590876e+00 211 196 157
1.082605e-01 -4.504381e-01 -1.707992e+00 93 176 76
8.653848e-02 -4.468270e-01 -1.699044e+00 18 74 1
1.578780e-01 -4.492590e-01 -1.706097e+00 41 85 17
-2.460037e-01 -4.742054e-01 -1.886172e+00 183 118 71
-2.606105e-01 -4.721136e-01 -1.886607e+00 182 122 74
1.235696e-01 -4.349147e-01 -1.705056e+00 24 76 22
-2.165115e-01 -4.629433e-01 -1.880899e+00 92 24 1
-2.002844e-01 -4.601648e-01 -1.874012e+00 96 30 0
-9.994983e-02 -4.553458e-01 -1.852799e+00 95 3 0
1.419242e-01 -4.246960e-01 -1.690745e+00 14 79 3
-2.397404e-01 -4.576656e-01 -1.892402e+00 157 96 39
-2.406475e-01 -4.567111e-01 -1.887761e+00 157 96 39
-3.260571e-01 -4.582862e-01 -1.915724e+00 186 125 77
4.016349e-02 -4.483343e-01 -1.847478e+00 81 34 6
1.952410e-01 -4.188980e-01 -1.687727e+00 64 82 19
1.952342e-01 -4.189650e-01 -1.687776e+00 64 82 19
-7.295807e-02 -4.416582e-01 -1.837227e+00 92 1 3
-8.521642e-02 -4.406822e-01 -1.834827e+00 140 41 28
-6.881996e-02 -4.443094e-01 -1.865386e+00 142 45 27
-6.841010e-02 -4.447112e-01 -1.865366e+00 142 45 27
1.918903e-01 -4.081984e-01 -1.680033e+00 187 188 115
-2.351932e-01 -4.314559e-01 -1.878801e+00 97 30 2
-1.906288e-01 -4.258651e-01 -1.859625e+00 115 48 0
-2.373405e-01 -4.258314e-01 -1.872347e+00 101 32 2
1.980708e-01 -3.989831e-01 -1.680938e+00 202 189 129
1.992457e-01 -3.991299e-01 -1.681986e+00 202 189 129
-2.485529e-01 -4.231390e-01 -1.884812e+00 154 88 20
-3.564684e-01 -4.271964e-01 -1.933064e+00 116 57 2
5.166417e-01 -3.879536e-01 -1.625388e+00 53 44 10
-3.187937e-01 -4.226269e-01 -1.908722e+00 161 95 32
-1.921207e-01 -4.125092e-01 -1.860842e+00 116 46 0
-1.921921e-01 -4.124361e-01 -1.860783e+00 116 46 0
5.021805e-01 -3.815378e-01 -1.615713e+00 209 194 150
-2.388155e-01 -4.120315e-01 -1.867529e+00 80 12 0
-2.389407e-01 -4.120827e-01 -1.867169e+00 80 12 0
-2.060283e-01 -4.076994e-01 -1.856654e+00 151 86 28
-2.057057e-01 -4.081480e-01 -1.859023e+00 151 86 28
-3.221518e-01 -4.089005e-01 -1.905449e+00 154 92 28
-3.594759e-01 -4.112233e-01 -1.934554e+00 121 61 5
-2.398662e-01 -4.019112e-01 -1.871372e+00 83 18 2
-2.402824e-01 -4.009560e-01 -1.864959e+00 83 18 2
-1.948643e-01 -3.975481e-01 -1.851285e+00 122 50 0
2.838314e-01 -3.731440e-01 -1.664309e+00 51 42 14
-6.247267e-02 -3.919785e-01 -1.819314e+00 92 2 1
2.907347e-01 -3.702762e-01 -1.653096e+00 122 116 96
2.826864e-01 -3.691549e-01 -1.645523e+00 122 116 96
2.951671e-01 -3.715597e-01 -1.667755e+00 38 31 6
-2.073326e-01 -3.939006e-01 -1.856308e+00 153 87 28
-3.462880e-01 -3.997428e-01 -1.914203e+00 162 101 36
2.957022e-01 -3.724765e-01 -1.680385e+00 80 75 55
2.922840e-01 -3.717437e-01 -1.677398e+00 80 75 55
3.015571e-01 -3.690196e-01 -1.666258e+00 29 22 5
-2.270304e-01 -3.909120e-01 -1.857740e+00 80 14 1
-3.638866e-01 -3.972910e-01 -1.919693e+00 180 117 62
-3.637738e-01 -3.974084e-01 -1.918177e+00 180 117 62
-2.043857e-01 -3.891029e-01 -1.853347e+00 94 23 3
-2.047150e-01 -3.886960e-01 -1.851702e+00 94 23 3
-3.548948e-01 -3.952287e-01 -1.916124e+00 156 103 36
-3.175902e-01 -3.890668e-01 -1.894342e+00 99 37 0
-2.075300e-01 -3.817594e-01 -1.865276e+00 145 79 23
-3.329200e-01 -3.853841e-01 -1.905816e+00 98 36 0
-3.327772e-01 -3.847101e-01 -1.902127e+00 98 36 0
-2.279987e-01 -3.776440e-01 -1.864422e+00 81 11 1
-3.626504e-01 -3.814611e-01 -1.920279e+00 114 56 1
-3.310322e-01 -3.792498e-01 -1.899912e+00 160 97 30
-3.592009e-01 -3.789875e-01 -1.917968e+00 161 102 43
-2.518101e-01 -3.705095e-01 -1.860519e+00 158 97 35
-2.518101e-01 -3.705095e-01 -1.860519e+00 158 97 35
-3.417531e-01 -3.755740e-01 -1.907677e+00 162 100 32
-2.577812e-01 -3.680397e-01 -1.862314e+00 109 35 6
-2.577812e-01 -3.680397e-01 -1.862314e+00 109 35 6
-3.493461e-01 -3.730728e-01 -1.914500e+00 159 101 36
-2.114224e-01 -3.649469e-01 -1.850228e+00 147 83 20
-2.504241e-01 -3.546081e-01 -1.860750e+00 105 39 3
-5.888559e-02 -3.459889e-01 -1.815189e+00 88 0 0
-3.246120e-01 -3.544126e-01 -1.891079e+00 157 91 23
-9.958337e-02 -3.456538e-01 -1.815547e+00 79 1 0
-3.437938e-01 -3.534584e-01 -1.905005e+00 108 52 1
-3.437419e-01 -3.534195e-01 -1.904368e+00 108 52 1
-7.888266e-02 -3.435805e-01 -1.814006e+00 139 40 18
-1.854882e-01 -3.442968e-01 -1.835818e+00 127 42 4
3.266072e-02 -3.404502e-01 -1.817944e+00 131 77 60
-3.544228e-01 -3.488463e-01 -1.908103e+00 105 49 1
-3.546374e-01 -3.489705e-01 -1.909159e+00 105 49 1
-3.439047e-01 -3.465415e-01 -1.895840e+00 162 96 28
-2.557819e-01 -3.417030e-01 -1.857761e+00 161 98 43
-2.557448e-01 -3.417542e-01 -1.858059e+00 161 98 43
-3.617459e-01 -3.462862e-01 -1.911927e+00 109 53 4
-1.292118e-01 -3.365505e-01 -1.820673e+00 85 3 0
-1.292118e-01 -3.365505e-01 -1.820673e+00 85 3 0
-3.678886e-01 -3.406677e-01 -1.913311e+00 111 52 4
-3.610412e-01 -3.401493e-01 -1.906459e+00 166 108 38
4.027930e-01 -3.128075e-01 -1.647033e+00 87 87 69
-1.955947e-02 -3.287821e-01 -1.844486e+00 132 38 22
-1.477634e-01 -3.274152e-01 -1.825703e+00 126 31 1
-2.533704e-01 -3.290302e-01 -1.854545e+00 83 17 0
-2.533704e-01 -3.290302e-01 -1.854545e+00 83 17 0
-2.621881e-01 -3.294682e-01 -1.863458e+00 98 34 6
-1.440433e-01 -3.240544e-01 -1.823206e+00 183 98 61
-1.769710e-01 -3.255200e-01 -1.836211e+00 138 40 5
-2.582964e-01 -3.272124e-01 -1.853230e+00 160 100 37
-2.582555e-01 -3.272730e-01 -1.854414e+00 160 100 37
-2.723119e-01 -3.269398e-01 -1.859955e+00 162 96 27
-2.175985e-01 -3.219101e-01 -1.832531e+00 151 91 20
-2.170208e-01 -3.220835e-01 -1.836272e+00 151 91 20
-6.004041e-02 -3.176164e-01 -1.802541e+00 76 0 0
-1.990343e-02 -3.164413e-01 -1.811689e+00 88 0 2
-1.987162e-02 -3.164921e-01 -1.811818e+00 88 0 2
-2.201998e-01 -3.151007e-01 -1.838416e+00 81 18 0
-2.188895e-01 -3.156634e-01 -1.846372e+00 81 18 0
-2.635489e-01 -3.156661e-01 -1.863542e+00 101 37 3
4.845768e-02 -3.084082e-01 -1.823864e+00 140 119 74
-2.685658e-01 -3.147508e-01 -1.853633e+00 158 94 23
-2.593719e-01 -3.131273e-01 -1.857814e+00 164 106 34
-2.659536e-01 -3.106650e-01 -1.847000e+00 107 41 1
-2.656106e-01 -3.106754e-01 -1.852445e+00 107 41 1
-2.188347e-01 -3.071908e-01 -1.828458e+00 153 96 25
-3.757155e-01 -3.117533e-01 -1.904150e+00 187 120 64
-3.756533e-01 -3.117767e-01 -1.902932e+00 187 120 64
-2.379013e-01 -3.048979e-01 -1.844220e+00 83 21 1
-8.428799e-02 -2.995787e-01 -1.789667e+00 68 1 2
-1.695613e-03 -2.961942e-01 -1.792524e+00 92 2 0
1.860684e-03 -2.959548e-01 -1.800991e+00 92 2 0
-1.082404e-01 -2.980657e-01 -1.803503e+00 77 0 1
-2.255432e-01 -2.993282e-01 -1.835480e+00 158 99 27
-2.298239e-01 -2.985415e-01 -1.837204e+00 114 51 0
3.962501e-01 -2.814956e-01 -1.679295e+00 65 58 42
-2.056418e-01 -2.972145e-01 -1.839564e+00 120 54 0
-7.728787e-02 -2.902693e-01 -1.804278e+00 78 0 0
-8.733281e-02 -2.908796e-01 -1.807496e+00 76 0 0
-1.191941e-01 -2.882060e-01 -1.801926e+00 140 52 27
-1.181682e-01 -2.882137e-01 -1.805466e+00 140 52 27
8.930567e-02 -2.817555e-01 -1.777535e+00 45 35 25
4.038437e-01 -2.713070e-01 -1.681909e+00 213 199 157
-8.899329e-02 -2.853669e-01 -1.802701e+00 86 0 0
-3.944466e-01 -2.933604e-01 -1.912212e+00 128 61 16
-5.199186e-02 -2.828516e-01 -1.796471e+00 135 47 31
4.113609e-01 -2.694942e-01 -1.694709e+00 47 35 14
3.819523e-02 -2.776237e-01 -1.800957e+00 154 130 85
-8.012512e-02 -2.793768e-01 -1.792587e+00 141 41 27
4.122947e-01 -2.637956e-01 -1.696729e+00 215 200 151
3.970057e-01 -2.635577e-01 -1.689734e+00 58 47 22
-8.165756e-02 -2.737257e-01 -1.808379e+00 67 0 3
-1.030453e-01 -2.746607e-01 -1.803230e+00 88 5 2
4.183498e-01 -2.582991e-01 -1.711894e+00 45 34 14
-3.962322e-01 -2.811157e-01 -1.917211e+00 133 63 21
-3.257175e-01 -2.738076e-01 -1.890445e+00 169 111 40
-2.130439e-02 -2.571230e-01 -1.795890e+00 131 41 28
-3.441675e-03 -2.553229e-01 -1.837181e+00 131 41 28
-2.115569e-01 -2.627185e-01 -1.824619e+00 74 14 2
-2.120670e-01 -2.627375e-01 -1.820941e+00 74 14 2
4.173150e-01 -2.414094e-01 -1.724754e+00 219 205 159
-2.080826e-01 -2.611760e-01 -1.819738e+00 164 114 32
3.999422e-01 -2.398920e-01 -1.727546e+00 59 48 31
-2.180718e-01 -2.580332e-01 -1.823672e+00 169 122 55
-9.700548e-03 -2.504492e-01 -1.795707e+00 130 36 24
-9.700548e-03 -2.504492e-01 -1.795707e+00 130 36 24
-2.253234e-01 -2.573770e-01 -1.834581e+00 165 117 52
-2.258802e-01 -2.576544e-01 -1.829869e+00 165 117 52
-8.751597e-02 -2.521130e-01 -1.780530e+00 155 62 31
-8.415856e-02 -2.515847e-01 -1.790418e+00 155 62 31
-2.324601e-01 -2.548592e-01 -1.826992e+00 99 42 3
-1.398279e-01 -2.513026e-01 -1.790542e+00 174 78 42
-1.398279e-01 -2.513026e-01 -1.790542e+00 174 78 42
-2.127838e-01 -2.475444e-01 -1.825964e+00 72 3 0
-2.286182e-01 -2.429062e-01 -1.827082e+00 168 112 51
-2.288839e-01 -2.431850e-01 -1.824410e+00 168 112 51
-4.573833e-02 -2.372436e-01 -1.785806e+00 156 59 34
